# .PCD v0.7 - Point Cloud Data file format
VERSION 0.7
FIELDS x y z rgba
SIZE 4 4 4 4
TYPE F F F U
COUNT 1 1 1 1
WIDTH 1095
HEIGHT 1
VIEWPOINT 0 0 0 1 0 0 0
POINTS 1095
DATA ascii
0.16787374 0.71915209 0.28408808 4288256409
0.19882211 0.75158852 0.29428795 4288256409
0.20395745 0.75538999 0.2865901 4288256409
0.25426665 0.82839614 0.31769422 4293138972
0.28285161 0.82771266 0.32924899 4293138972
0.27494505 0.83163828 0.33250701 4293138972
0.29289833 0.82279956 0.31039041 4293138972
0.30314827 0.8176344 0.29583457 4293138972
0.2431367 0.81106102 0.34482035 4293138972
0.24175848 0.81100881 0.34351805 4293138972
0.24153763 0.8113566 0.34199053 4293138972
0.24151462 0.81147599 0.33943874 4293138972
0.25278282 0.82233506 0.34387478 4293138972
0.25252762 0.82224536 0.34158286 4293138972
0.24280143 0.81267101 0.3362326 4293138972
0.24250831 0.81300354 0.33537561 4293138972
0.24898027 0.81973428 0.33621579 4293138972
0.18005729 0.73082584 0.28717512 4288256409
0.19192018 0.74493647 0.29441878 4288256409
0.29890925 0.81071115 0.32701895 4293138972
0.16069838 0.70946163 0.27228844 4288256409
0.16350105 0.71285474 0.27250439 4288256409
0.23230252 0.78600895 0.3148452 4288256409
0.2518121 0.82600659 0.32810313 4293138972
0.22497374 0.77734661 0.3011353 4288256409
0.20851247 0.76193976 0.29025322 4288256409
0.25248083 0.82658166 0.31816134 4293138972
0.21139966 0.76432949 0.28380612 4288256409
0.22514886 0.77049565 0.2833662 4288256409
0.23706211 0.78916973 0.29145122 4288256409
0.23854652 0.80847818 0.36287588 4293138972
0.24886434 0.81648916 0.35159624 4293138972
0.24712513 0.81601906 0.33723265 4293138972
0.25289145 0.82328743 0.34061134 4293138972
0.24889277 0.81887043 0.33630776 4293138972
0.15423898 0.70579493 0.28481257 4288256409
0.16948049 0.71949196 0.28325236 4288256409
0.16568407 0.71455055 0.27640548 4288256409
0.16503224 0.71653807 0.28011948 4288256409
0.16924341 0.71860605 0.27763444 4288256409
0.18295662 0.73355651 0.28573364 4288256409
0.16987473 0.71902144 0.27430692 4288256409
0.17285797 0.72140443 0.2732344 4288256409
0.20083585 0.75437355 0.29299048 4288256409
0.19231266 0.74379736 0.27774912 4288256409
0.30491832 0.82205141 0.280711 4293138972
0.30539662 0.82406098 0.27379674 4293138972
0.24034797 0.80952132 0.36384293 4293138972
0.24047865 0.8093338 0.3619225 4293138972
0.24809803 0.81493634 0.35017952 4293138972
0.14812906 0.69583225 0.28652093 4288256409
0.14128625 0.68959248 0.28110832 4288256409
0.19049592 0.74111432 0.2825214 4288256409
0.19169511 0.74044025 0.27890915 4288256409
0.22375955 0.77580744 0.29487425 4288256409
0.20601876 0.75936472 0.28341922 4288256409
0.20811652 0.76138371 0.28311664 4288256409
0.11287694 0.65363616 0.27560696 4288256409
0.096075028 0.640966 0.26543006 4288256409
0.1125965 0.65626198 0.27574039 4288256409
0.14624101 0.69412404 0.2851142 4288256409
0.2493232 0.81798309 0.34342661 4293138972
0.11774273 0.66600835 0.26845759 4288256409
0.14937679 0.69915771 0.28224009 4288256409
0.16234058 0.71389192 0.28571674 4288256409
0.16849992 0.71835262 0.28140754 4288256409
0.16410579 0.7137084 0.27772573 4288256409
0.16587511 0.71500754 0.27432123 4288256409
0.16707133 0.71721923 0.27357739 4288256409
0.16935274 0.71879876 0.27196372 4288256409
0.19031361 0.74225998 0.27647665 4288256409
0.25285304 0.82745051 0.32037917 4293138972
0.25293139 0.82698208 0.31637672 4293138972
0.23837845 0.78561693 0.28961089 4288256409
0.28984556 0.83238989 0.29530522 4293138972
0.23962639 0.80898589 0.36835474 4293138972
0.23747118 0.80718338 0.3568016 4293138972
0.24226089 0.8112697 0.34163639 4293138972
0.29623222 0.8105849 0.33439067 4293138972
0.1863312 0.73924732 0.28495473 4288256409
0.18864323 0.7409687 0.27634349 4288256409
0.25180551 0.82618195 0.32075194 4293138972
0.2512466 0.82512623 0.31782654 4293138972
0.23649566 0.78754294 0.29507685 4288256409
0.23508729 0.78787643 0.29065594 4288256409
0.10097793 0.64216858 0.26785585 4288256409
0.16401342 0.71437597 0.28617519 4288256409
0.16182715 0.71098167 0.27562809 4288256409
0.16754258 0.71686018 0.27902389 4288256409
0.15915947 0.70799834 0.27135283 4288256409
0.2224669 0.77549052 0.28624207 4288256409
0.29180777 0.83982164 0.27494344 4293138972
0.1072009 0.6463412 0.27214378 4288256409
0.10513094 0.64636433 0.27077645 4288256409
0.29263887 0.80882198 0.34849283 4293138972
0.10594852 0.6489256 0.27025571 4288256409
0.12003145 0.66712105 0.26874101 4288256409
0.25105271 0.82105488 0.33961681 4293138972
0.14890626 0.69836783 0.2772229 4288256409
0.250359 0.82290059 0.33045161 4293138972
0.1649902 0.71500045 0.27217391 4288256409
0.21884148 0.77217448 0.29556629 4288256409
0.23505509 0.78446597 0.29236755 4288256409
0.2376069 0.78135878 0.28616098 4288256409
0.30337998 0.81889951 0.29418102 4293138972
0.23870628 0.80752027 0.36788654 4293138972
0.23695529 0.80892807 0.34998322 4293138972
0.25094411 0.81812358 0.34772259 4293138972
0.24950166 0.81750596 0.34727669 4293138972
0.2427889 0.81259406 0.33754194 4293138972
0.24879648 0.81782377 0.33857352 4293138972
0.15210225 0.69987684 0.27163976 4288256409
0.23287614 0.78603268 0.31127355 4288256409
0.1910914 0.73576975 0.27394903 4288256409
0.20277977 0.75374514 0.28730613 4288256409
0.20898102 0.75153118 0.27709606 4288256409
0.23494416 0.78501892 0.29448298 4288256409
0.29408336 0.80942529 0.34496477 4293138972
0.2420858 0.81194878 0.33998528 4293138972
0.25020385 0.8236652 0.32189563 4293138972
0.21093358 0.75285786 0.27613196 4288256409
0.2344448 0.78136879 0.28906667 4288256409
0.29610676 0.81759566 0.31468046 4293138972
0.10255508 0.64109504 0.27035925 4288256409
0.11741094 0.66082895 0.27761114 4288256409
0.11958397 0.6632669 0.27780414 4288256409
0.10608117 0.6509456 0.26914963 4288256409
0.2947695 0.81032556 0.33865595 4293138972
0.11853886 0.66562599 0.26335752 4288256409
0.12102818 0.66862136 0.26496109 4288256409
0.15906189 0.71038848 0.28241032 4288256409
0.21724354 0.76974767 0.31251767 4288256409
0.2173519 0.77071452 0.31044436 4288256409
0.18440339 0.73757589 0.28309101 4288256409
0.19524609 0.74559021 0.28218183 4288256409
0.21671952 0.76536119 0.28415912 4288256409
0.22190617 0.77325505 0.29139501 4288256409
0.23076618 0.78113031 0.2958149 4288256409
0.24779309 0.81827229 0.3741506 4293138972
0.2387457 0.80808401 0.3661848 4293138972
0.24686755 0.81437612 0.35080987 4293138972
0.25291863 0.82098997 0.35366222 4293138972
0.24708278 0.81446844 0.34818801 4293138972
0.24849601 0.8160063 0.34473845 4293138972
0.2483561 0.81652504 0.34131655 4293138972
0.108753 0.65525228 0.26429382 4288256409
0.14062946 0.68996793 0.27756742 4288256409
0.12205239 0.67111111 0.27026397 4288256409
0.14032285 0.68913007 0.27381551 4288256409
0.15923779 0.70761907 0.2736558 4288256409
0.24428585 0.81478351 0.33081627 4293138972
0.29893211 0.81376427 0.31416908 4293138972
0.23792823 0.80779856 0.36462379 4293138972
0.29029551 0.80785716 0.35868213 4293138972
0.1003575 0.64045036 0.2698265 4288256409
0.10387602 0.64250416 0.27057573 4288256409
0.11548501 0.65927565 0.27594176 4288256409
0.14134732 0.68859148 0.28253064 4288256409
0.24608891 0.81489277 0.33876267 4293138972
0.1253749 0.67180681 0.26504979 4288256409
0.15372407 0.70164454 0.2707482 4288256409
0.15518117 0.70350355 0.27006659 4288256409
0.19537213 0.74574155 0.28386497 4288256409
0.2333153 0.78274971 0.28926224 4288256409
0.23817208 0.79087549 0.29050702 4288256409
0.24481674 0.81324232 0.35976613 4293138972
0.23823343 0.80819076 0.35125399 4293138972
0.13371718 0.68108928 0.28122866 4288256409
0.14193898 0.68859237 0.28454497 4288256409
0.24369489 0.81278223 0.34067374 4293138972
0.15685666 0.70642948 0.28888965 4288256409
0.19106451 0.74149984 0.30375624 4288256409
0.2456446 0.81519759 0.33650157 4293138972
0.24694367 0.81648499 0.33340204 4293138972
0.24712212 0.81671554 0.33497939 4293138972
0.15430538 0.70246172 0.27347037 4288256409
0.19545119 0.7465986 0.28887686 4288256409
0.19438754 0.74556291 0.2865276 4288256409
0.23458661 0.78571111 0.2968708 4288256409
0.23627192 0.7858693 0.29333612 4288256409
0.23836097 0.77530396 0.27913749 4288256409
0.3055841 0.82304198 0.27894264 4293138972
0.098507173 0.64000678 0.26808584 4288256409
0.14477085 0.6934303 0.27739796 4288256409
0.24295558 0.81303889 0.33407453 4293138972
0.29579213 0.81064743 0.33636606 4293138972
0.24352206 0.81346798 0.33303463 4293138972
0.24547413 0.81516278 0.33349919 4293138972
0.1833858 0.73317951 0.28047651 4288256409
0.25283113 0.82675642 0.32618847 4293138972
0.23082219 0.7827825 0.30089593 4288256409
0.23001736 0.77114135 0.28034592 4288256409
0.25611562 0.82961345 0.31226406 4293138972
0.25654706 0.82967782 0.30897704 4293138972
0.25670397 0.82931066 0.30721432 4293138972
0.29595271 0.84049213 0.26684952 4293138972
0.2513774 0.81963617 0.35315549 4293138972
0.24605928 0.81378329 0.34283161 4293138972
0.11638147 0.66350168 0.26377761 4288256409
0.24787767 0.81721199 0.3363913 4293138972
0.19942032 0.75049472 0.29013872 4288256409
0.20052569 0.75153446 0.28876781 4288256409
0.20183492 0.75319976 0.28866377 4288256409
0.23250027 0.78198987 0.29494795 4288256409
0.24564239 0.81359375 0.35721618 4293138972
0.24967925 0.81773651 0.35954615 4293138972
0.24848369 0.8162173 0.35884914 4293138972
0.25161216 0.81957579 0.35640115 4293138972
0.15548211 0.70488095 0.281537 4288256409
0.14551494 0.69587445 0.27904305 4288256409
0.15583135 0.70590842 0.28007665 4288256409
0.15542987 0.70287097 0.26578808 4288256409
0.19822228 0.74895239 0.28769949 4288256409
0.3018921 0.81291729 0.31250504 4293138972
0.30617511 0.8239817 0.27501407 4293138972
0.29014164 0.80697238 0.36224014 4293138972
0.24734502 0.81460601 0.35599846 4293138972
0.24320509 0.81180692 0.34272024 4293138972
0.1575966 0.7059769 0.27424189 4288256409
0.15329273 0.70170802 0.26883367 4288256409
0.23116687 0.78131592 0.29353872 4288256409
0.25491461 0.82812172 0.31166837 4293138972
0.24589533 0.8134374 0.35449612 4293138972
0.19482999 0.74634379 0.2768037 4288256409
0.23013975 0.77991784 0.29287562 4288256409
0.23303264 0.77491319 0.28305551 4288256409
0.23127498 0.77936047 0.29091588 4288256409
0.24121621 0.81073844 0.34211466 4293138972
0.15317713 0.70175183 0.28896913 4288256409
0.24729148 0.8153882 0.34151673 4293138972
0.1804314 0.7292794 0.29882818 4288256409
0.18321495 0.73219955 0.30086932 4288256409
0.18528993 0.73480964 0.30167899 4288256409
0.14090791 0.6891492 0.27090847 4288256409
0.13815634 0.68877703 0.2722556 4288256409
0.24839005 0.81833088 0.33398631 4293138972
0.14179187 0.69048792 0.26134372 4288256409
0.24711356 0.81755912 0.32879275 4293138972
0.24927525 0.82155389 0.33160231 4293138972
0.2444205 0.81375051 0.32647157 4293138972
0.24595438 0.8158704 0.32784739 4293138972
0.24746139 0.81828719 0.32739326 4293138972
0.24872686 0.82042688 0.32929993 4293138972
0.23594782 0.78880227 0.30831462 4288256409
0.22873171 0.77790982 0.29106918 4288256409
0.2503987 0.82384378 0.31548256 4293138972
0.25337398 0.82692271 0.31434652 4293138972
0.24082069 0.80941772 0.35030684 4293138972
0.13679966 0.68735236 0.27267519 4288256409
0.22439216 0.77612269 0.29744303 4288256409
0.22579516 0.77779335 0.29901817 4288256409
0.22637619 0.77659994 0.29247934 4288256409
0.23671335 0.78825277 0.29845256 4288256409
0.25144717 0.82436097 0.31011117 4293138972
0.25320795 0.82664603 0.31196162 4293138972
0.30077276 0.81604946 0.30995142 4293138972
0.28472489 0.84284192 0.27925172 4293138972
0.14560686 0.69421035 0.26773 4288256409
0.14557882 0.69637316 0.27613321 4288256409
0.14073238 0.68913817 0.26341256 4288256409
0.13766187 0.68954104 0.27574453 4288256409
0.14750862 0.69792092 0.27206829 4288256409
0.15016215 0.69927239 0.26532111 4288256409
0.15247354 0.70156437 0.26660639 4288256409
0.29971853 0.81200969 0.32117397 4293138972
0.22277725 0.77472055 0.29427314 4288256409
0.23243847 0.78279501 0.29599082 4288256409
0.22732431 0.77601075 0.28939924 4288256409
0.23935173 0.79009545 0.29814881 4288256409
0.24846481 0.81604254 0.35897639 4293138972
0.24863404 0.81599736 0.35476002 4293138972
0.1051905 0.64750785 0.2671898 4288256409
0.13651177 0.684973 0.26071849 4288256409
0.24429929 0.81380647 0.32864916 4293138972
0.24579723 0.81608397 0.3302784 4293138972
0.23782475 0.78972554 0.30483943 4288256409
0.23757833 0.78943604 0.30170795 4288256409
0.2364618 0.7882188 0.30334699 4288256409
0.2709699 0.83726192 0.3284958 4293138972
0.26942545 0.83376932 0.26308548 4293138972
0.23773359 0.80794853 0.36191249 4293138972
0.10717178 0.65332228 0.2605651 4288256409
0.29468137 0.8102603 0.34039921 4293138972
0.24117419 0.81220281 0.3329345 4293138972
0.30767646 0.82622725 0.26768112 4293138972
0.24281424 0.81055784 0.35317284 4293138972
0.17829095 0.72837615 0.29768899 4288256409
0.13685124 0.68607748 0.27214879 4288256409
0.14241891 0.69250166 0.27587295 4288256409
0.22708762 0.77839869 0.2966654 4288256409
0.30640569 0.82162219 0.28206792 4293138972
0.3066816 0.82644284 0.26968941 4293138972
0.30807662 0.82690138 0.26552469 4293138972
0.26576585 0.83167553 0.26107463 4293138972
0.26740098 0.83361471 0.26273426 4293138972
0.13387315 0.68209547 0.26631138 4288256409
0.24569644 0.81571233 0.32959545 4293138972
0.21239963 0.7550981 0.27759257 4288256409
0.26703706 0.8318066 0.27017024 4293138972
0.23707865 0.80649245 0.36731717 4293138972
0.23676485 0.80365258 0.36090142 4293138972
0.11300083 0.65914047 0.27351922 4288256409
0.245768 0.81255853 0.3470732 4293138972
0.13803875 0.6846121 0.28408432 4288256409
0.17457989 0.72286737 0.29750443 4288256409
0.13452429 0.68284583 0.26115468 4288256409
0.1667829 0.71643507 0.2699981 4288256409
0.16658804 0.71668303 0.26831704 4288256409
0.18376538 0.73026377 0.27341017 4288256409
0.18243259 0.7342577 0.2832877 4288256409
0.18226431 0.73283839 0.27355593 4288256409
0.20963566 0.76310581 0.28128821 4288256409
0.30355093 0.82020694 0.28821164 4293138972
0.30504316 0.82040536 0.28813696 4293138972
0.18002117 0.72724551 0.30019873 4288256409
0.1821602 0.72976249 0.30197585 4288256409
0.13203198 0.68119818 0.27058774 4288256409
0.18129835 0.72498065 0.29422483 4288256409
0.26878163 0.83325791 0.26500639 4293138972
0.27056289 0.83548576 0.26472086 4293138972
0.17751548 0.72510916 0.29892877 4288256409
0.24497353 0.81397861 0.33433375 4293138972
0.24987677 0.82396919 0.32731763 4293138972
0.21330434 0.76475203 0.2882264 4288256409
0.24915542 0.82226372 0.32371685 4293138972
0.25030205 0.82359433 0.32359439 4293138972
0.24906942 0.82369518 0.32171741 4293138972
0.2494736 0.8225854 0.31606761 4293138972
0.30023816 0.81425524 0.3151564 4293138972
0.25200853 0.82525837 0.31327283 4293138972
0.13392483 0.6812945 0.2698147 4288256409
0.13349776 0.68145621 0.267075 4288256409
0.17966399 0.73006916 0.28355321 4288256409
0.19945727 0.74654073 0.27927133 4288256409
0.21647224 0.76937908 0.2930654 4288256409
0.10228224 0.64739174 0.26079941 4288256409
0.29437387 0.81006813 0.34271929 4293138972
0.14010158 0.68954092 0.27508005 4288256409
0.14979285 0.69750154 0.27098191 4288256409
0.27150303 0.83371532 0.33836719 4293138972
0.23878013 0.78969157 0.29959932 4288256409
0.13085085 0.6788801 0.26701412 4288256409
0.19851716 0.75043309 0.27754229 4288256409
0.23415492 0.78364033 0.29702881 4288256409
0.26747426 0.83332175 0.26008666 4293138972
0.23752935 0.80655909 0.3684772 4293138972
0.14482483 0.69067991 0.28686315 4288256409
0.16779363 0.71520722 0.26994905 4288256409
0.17086196 0.72021544 0.27219245 4288256409
0.24941538 0.82176834 0.32696411 4293138972
0.24657062 0.81766349 0.3229503 4293138972
0.19444624 0.74259233 0.30093133 4288256409
0.19692069 0.74841714 0.2772738 4288256409
0.14321075 0.69305152 0.27735966 4288256409
0.15157351 0.70246524 0.28219548 4288256409
0.14557295 0.69591922 0.27285358 4288256409
0.14845434 0.69718653 0.26663926 4288256409
0.24739952 0.81889045 0.32505667 4293138972
0.20586646 0.75344694 0.28136882 4288256409
0.1520704 0.69900352 0.28906766 4288256409
0.29643378 0.81170976 0.33301052 4293138972
0.18045242 0.7282657 0.27419323 4288256409
0.23824497 0.78870833 0.29685795 4288256409
0.1003693 0.64600402 0.26013678 4288256409
0.19330676 0.7445001 0.28725949 4288256409
0.20365384 0.75201416 0.28235012 4288256409
0.21513397 0.76563233 0.28716612 4288256409
0.30217421 0.81610411 0.30556968 4293138972
0.12087025 0.66278845 0.27913809 4288256409
0.17618409 0.72504139 0.27690321 4288256409
0.24454327 0.81508803 0.32368311 4293138972
0.24599871 0.81670445 0.32449612 4293138972
0.234496 0.78744543 0.31175601 4288256409
0.20678847 0.75595349 0.28394833 4288256409
0.25519198 0.82816917 0.30893481 4293138972
0.15713137 0.70432663 0.29113907 4288256409
0.18758151 0.73764092 0.30211595 4288256409
0.17974415 0.72883368 0.27684516 4288256409
0.20181343 0.75307739 0.29069948 4288256409
0.18628216 0.73158687 0.27335909 4288256409
0.2367726 0.79024136 0.31364104 4288256409
0.20219713 0.7522403 0.28465644 4288256409
0.25040132 0.8234874 0.31314206 4293138972
0.30120373 0.81602037 0.30703607 4293138972
0.29371551 0.84007454 0.27500239 4293138972
0.16134584 0.70838046 0.29288837 4288256409
0.18174239 0.7314977 0.28105521 4288256409
0.23815142 0.79026407 0.30677041 4288256409
0.1509584 0.69628024 0.29036459 4288256409
0.20853809 0.76164883 0.3083778 4288256409
0.21596889 0.7693696 0.31077245 4288256409
0.16623633 0.71252513 0.26757985 4288256409
0.17779142 0.72301227 0.27027848 4288256409
0.18452068 0.73291302 0.27692658 4288256409
0.24610814 0.81667405 0.32632557 4293138972
0.14406574 0.68775445 0.28791231 4288256409
0.14675124 0.69075465 0.28945372 4288256409
0.14890924 0.69459134 0.28900957 4288256409
0.16154461 0.71092153 0.2701745 4288256409
0.16822711 0.70510727 0.26101762 4288256409
0.23810352 0.78842628 0.29527199 4288256409
0.24019606 0.78639442 0.28945994 4288256409
0.26182413 0.82709688 0.27444732 4293138972
0.24009334 0.80912143 0.35385376 4293138972
0.14486387 0.69217193 0.26782399 4288256409
0.24783674 0.80659407 0.32076266 4293138972
0.17527184 0.72357148 0.27349454 4288256409
0.19866793 0.74909401 0.28518412 4288256409
0.25026217 0.82306463 0.31105137 4293138972
0.25865945 0.8247472 0.26902181 4293138972
0.25931296 0.82274264 0.26565272 4293138972
0.2610127 0.82546294 0.2674759 4293138972
0.13219352 0.67796296 0.28218073 4288256409
0.13417506 0.67959297 0.28217286 4288256409
0.1376746 0.68293113 0.28368306 4288256409
0.14286646 0.68852717 0.28646559 4288256409
0.12636532 0.67404038 0.26557383 4288256409
0.14549676 0.69389588 0.26259816 4288256409
0.14873837 0.69593036 0.26307824 4288256409
0.20405276 0.74824971 0.27853635 4288256409
0.26120692 0.83084232 0.29418108 4293138972
0.26952803 0.83523178 0.26921156 4293138972
0.13449393 0.67825723 0.28333116 4288256409
0.13968047 0.68374979 0.28637859 4288256409
0.15159824 0.69519025 0.29103389 4288256409
0.24504088 0.81220603 0.34280404 4293138972
0.20258042 0.75413859 0.30706343 4288256409
0.21119243 0.76402652 0.31186953 4288256409
0.21354327 0.76581669 0.31197473 4288256409
0.22022246 0.77280021 0.31248784 4288256409
0.19737291 0.75091153 0.29170901 4288256409
0.24857578 0.82173193 0.32139561 4293138972
0.24867326 0.82147706 0.31748471 4293138972
0.26027828 0.82491875 0.2708289 4293138972
0.11136267 0.6498611 0.27519715 4288256409
0.13035409 0.6752454 0.28115082 4288256409
0.18229859 0.73265332 0.28384244 4288256409
0.24576032 0.8147704 0.3316395 4293138972
0.14238188 0.6864925 0.28769881 4288256409
0.12297633 0.67054832 0.26591903 4288256409
0.20990512 0.76145893 0.3116149 4288256409
0.21378578 0.76487958 0.30656227 4288256409
0.18276158 0.73184979 0.27735823 4288256409
0.23912963 0.79144669 0.30827087 4288256409
0.26184613 0.82578743 0.26526514 4293138972
0.26065552 0.82580131 0.26377401 4293138972
0.1412545 0.68697512 0.28506818 4288256409
0.1927129 0.74420363 0.29718617 4288256409
0.18170688 0.73069406 0.27844745 4288256409
0.25390613 0.8232013 0.29136792 4293138972
0.25260565 0.82193518 0.2875753 4293138972
0.25195751 0.82192659 0.28507498 4293138972
0.25423345 0.8226369 0.2827301 4293138972
0.25964829 0.82517695 0.27203381 4293138972
0.2474543 0.81931347 0.32272413 4293138972
0.23889324 0.7914691 0.30621034 4288256409
0.23972206 0.79137206 0.30261475 4288256409
0.25108594 0.82095265 0.28639331 4293138972
0.26511085 0.82928336 0.26335776 4293138972
0.24409211 0.81426424 0.37400922 4293138972
0.25654796 0.8231951 0.27287638 4293138972
0.24507363 0.81325758 0.33920613 4293138972
0.16218103 0.71058869 0.27311814 4288256409
0.23042427 0.78306615 0.31908181 4288256409
0.17740482 0.72381395 0.29985532 4288256409
0.16281672 0.71134961 0.27678442 4288256409
0.20927139 0.760979 0.31009248 4288256409
0.17111635 0.71979713 0.27364686 4288256409
0.17883295 0.72746158 0.27848107 4288256409
0.20566663 0.74990195 0.27858755 4288256409
0.2003873 0.75025874 0.30699804 4288256409
0.16151926 0.71111083 0.2676689 4288256409
0.20112091 0.75001103 0.28294966 4288256409
0.2405754 0.79159266 0.30036423 4288256409
0.30438232 0.81907427 0.29201245 4293138972
0.13617717 0.68460512 0.27887663 4288256409
0.1741401 0.72040522 0.29856989 4288256409
0.16068365 0.70918334 0.27531078 4288256409
0.17001362 0.71858382 0.2835713 4288256409
0.14036116 0.68868911 0.26136422 4288256409
0.15832901 0.70631957 0.27146703 4288256409
0.17174296 0.72440106 0.29140446 4288256409
0.25530711 0.8268227 0.30302852 4293138972
0.30916584 0.82621926 0.26804155 4293138972
0.16013759 0.70921922 0.26710695 4288256409
0.19642983 0.7473228 0.28715804 4288256409
0.24823901 0.80398047 0.31618857 4293138972
0.26217696 0.82741416 0.2729775 4293138972
0.16430269 0.71137184 0.29379144 4288256409
0.1722042 0.72012049 0.29668093 4288256409
0.21458368 0.76450288 0.28617874 4288256409
0.24832533 0.82083738 0.3188709 4293138972
0.25166151 0.82374913 0.30689472 4293138972
0.25120682 0.82269657 0.30442736 4293138972
0.25206599 0.8229925 0.29980269 4293138972
0.25430378 0.82550371 0.30207285 4293138972
0.25889903 0.82972819 0.29901317 4293138972
0.16666691 0.71586907 0.27964631 4288256409
0.20173034 0.7411108 0.2738896 4288256409
0.25921133 0.8304801 0.30137783 4293138972
0.25913927 0.82966387 0.29706779 4293138972
0.25702065 0.82361144 0.28114474 4293138972
0.25658494 0.82348126 0.28050631 4293138972
0.29845551 0.83322024 0.27921146 4293138972
0.17094643 0.71725798 0.29584309 4288256409
0.17624947 0.72573924 0.27937666 4288256409
0.22963722 0.78220224 0.31696996 4288256409
0.2443745 0.8121165 0.3294014 4293138972
0.194437 0.74383593 0.28124774 4288256409
0.24542584 0.81654173 0.32209313 4293138972
0.24787788 0.82080019 0.30179068 4293138972
0.25803715 0.82988626 0.303525 4293138972
0.25479504 0.82268417 0.28043047 4293138972
0.23942913 0.80843723 0.35926744 4293138972
0.24319214 0.81026429 0.34967908 4293138972
0.13751003 0.6846599 0.270542 4288256409
0.14768514 0.69482887 0.26892895 4288256409
0.21645482 0.76044762 0.2798942 4288256409
0.2402468 0.79282331 0.3057158 4288256409
0.24130692 0.79291785 0.30334532 4288256409
0.24168886 0.79275233 0.30126405 4288256409
0.24094781 0.79093969 0.2955136 4288256409
0.24180698 0.78994232 0.29264766 4288256409
0.25352198 0.8258847 0.30679205 4293138972
0.19555654 0.74414915 0.30678487 4288256409
0.22527777 0.77738112 0.31602937 4288256409
0.25166786 0.82067853 0.29669201 4293138972
0.26419625 0.83019555 0.2790111 4293138972
0.26353967 0.82870054 0.27568024 4293138972
0.14387359 0.69176823 0.26192099 4288256409
0.16951706 0.72258657 0.29117733 4288256409
0.15007696 0.69001669 0.28059676 4288256409
0.2217802 0.7757467 0.31410715 4288256409
0.24411011 0.81631178 0.31975436 4293138972
0.25708449 0.82357472 0.27623731 4293138972
0.12415627 0.66845322 0.27980486 4288256409
0.29083478 0.80830652 0.3606337 4293138972
0.18334797 0.72848904 0.30319986 4288256409
0.13897426 0.68472344 0.26322713 4288256409
0.1601553 0.7086401 0.26883274 4288256409
0.15900297 0.70529735 0.26447898 4288256409
0.2420963 0.79238445 0.29666263 4288256409
0.24047814 0.78883916 0.29261619 4288256409
0.25800425 0.83014053 0.30571344 4293138972
0.25923774 0.82691693 0.28637362 4293138972
0.2606546 0.82859677 0.28803495 4293138972
0.26187572 0.83050603 0.28927845 4293138972
0.13059813 0.67257637 0.28323835 4288256409
0.18695909 0.73618579 0.27939218 4288256409
0.23901919 0.78915995 0.29379722 4288256409
0.25801951 0.82873672 0.29835594 4293138972
0.2639617 0.83148569 0.28633234 4293138972
0.26405314 0.83107203 0.28431281 4293138972
0.15990072 0.70562816 0.29270986 4288256409
0.15996765 0.70519114 0.26473573 4288256409
0.30046028 0.812639 0.32229584 4293138972
0.25549695 0.82727784 0.30340573 4293138972
0.30715179 0.82561731 0.27334252 4293138972
0.14016794 0.68641239 0.26521185 4288256409
0.14266159 0.68982601 0.26736698 4288256409
0.15911241 0.70202166 0.26190555 4288256409
0.16776882 0.7141664 0.29143837 4288256409
0.24557185 0.81896275 0.30592307 4293138972
0.25523239 0.82585859 0.29854169 4293138972
0.25671259 0.82793242 0.29998046 4293138972
0.2583622 0.82716352 0.29100296 4293138972
0.12254035 0.66827184 0.26375097 4288256409
0.1570978 0.70708144 0.28643852 4288256409
0.13864255 0.68466949 0.26599413 4288256409
0.14707103 0.70241064 0.28502497 4288256409
0.17390563 0.72305101 0.27914312 4288256409
0.22126763 0.77332217 0.31398693 4288256409
0.17513938 0.7250461 0.27152243 4288256409
0.20991434 0.76209134 0.29116014 4288256409
0.24452762 0.81817615 0.30684158 4293138972
0.25217745 0.82062268 0.29724127 4293138972
0.25002387 0.82152611 0.303837 4293138972
0.2543287 0.82421052 0.29552972 4293138972
0.26122552 0.83211541 0.29853895 4293138972
0.26303592 0.83226502 0.29187357 4293138972
0.13914722 0.68668801 0.26185849 4288256409
0.22044626 0.7713275 0.31475437 4288256409
0.22247231 0.7733838 0.31607571 4288256409
0.26183984 0.82892364 0.28408214 4293138972
0.24011251 0.80921882 0.36956766 4293138972
0.10546473 0.64519775 0.27036509 4288256409
0.12889387 0.6718024 0.28203449 4288256409
0.14271784 0.69107515 0.27680731 4288256409
0.20506999 0.75615084 0.3098253 4288256409
0.22456372 0.77521873 0.31531215 4288256409
0.2546618 0.82558137 0.29980895 4293138972
0.2580905 0.82471824 0.28136998 4293138972
0.26087406 0.82825917 0.28545749 4293138972
0.26541546 0.83204913 0.28232917 4293138972
0.12450645 0.6667037 0.28044644 4288256409
0.25537893 0.82308996 0.35288024 4293138972
0.19806047 0.74796295 0.30645713 4288256409
0.15797332 0.70711994 0.26935282 4288256409
0.24640712 0.8190394 0.3079294 4293138972
0.25302714 0.82383716 0.29915655 4293138972
0.2536926 0.82210696 0.28676906 4293138972
0.25568601 0.82521671 0.29296875 4293138972
0.2543394 0.82292616 0.28784361 4293138972
0.2573216 0.8240515 0.27886933 4293138972
0.20409892 0.75451553 0.3094359 4288256409
0.24743864 0.81916243 0.31891093 4293138972
0.24627841 0.81849432 0.30970788 4293138972
0.24752472 0.81968522 0.306227 4293138972
0.25425929 0.82550728 0.3016828 4293138972
0.2551412 0.82303768 0.28410652 4293138972
0.16547096 0.71154326 0.29593611 4288256409
0.16900882 0.71613556 0.29637614 4288256409
0.17112345 0.71742308 0.29823744 4288256409
0.24879597 0.8211872 0.31330994 4293138972
0.24873994 0.8208245 0.31098291 4293138972
0.25597137 0.82557023 0.29391524 4293138972
0.12726346 0.66970462 0.28148562 4288256409
0.1292237 0.67020398 0.28304559 4288256409
0.1288289 0.67550069 0.2675947 4288256409
0.24525312 0.81806737 0.3114281 4293138972
0.25351793 0.82374805 0.29711252 4293138972
0.15546776 0.70218253 0.26518789 4288256409
0.22856101 0.78035504 0.31669474 4288256409
0.25212845 0.82212883 0.2964091 4293138972
0.24112861 0.79420537 0.31402272 4293138972
0.22220303 0.7733565 0.29778448 4288256409
0.24424122 0.79143214 0.29251495 4288256409
0.15516056 0.69749337 0.29269141 4288256409
0.1540987 0.69884127 0.29187858 4288256409
0.21742229 0.76733804 0.31496441 4288256409
0.19804196 0.74382424 0.278193 4288256409
0.24103902 0.79171258 0.29851615 4288256409
0.24509318 0.81755656 0.31286237 4293138972
0.25489125 0.82281244 0.28332525 4293138972
0.25823432 0.82574469 0.28523928 4293138972
0.11625545 0.65824276 0.27736971 4288256409
0.16838148 0.71388412 0.29742977 4288256409
0.11714305 0.66447461 0.26581579 4288256409
0.19396526 0.74198377 0.30554458 4288256409
0.18053971 0.72497731 0.27173561 4288256409
0.25113776 0.82047194 0.28818348 4293138972
0.30709743 0.82308173 0.27964637 4293138972
0.25849611 0.82431525 0.27153018 4293138972
0.21495968 0.76481664 0.31529874 4288256409
0.2404566 0.79310578 0.3155162 4293138972
0.20844789 0.7598877 0.28943208 4288256409
0.24361323 0.79479659 0.30195636 4288256409
0.24146353 0.79149377 0.29930907 4288256409
0.24461037 0.7939983 0.29586586 4288256409
0.25287041 0.82169306 0.28584057 4293138972
0.14222179 0.68953955 0.26331267 4288256409
0.20357357 0.75351006 0.31070015 4288256409
0.15198563 0.69986922 0.26750344 4288256409
0.24429786 0.81512648 0.32132402 4293138972
0.24403919 0.7946769 0.29352513 4288256409
0.25226465 0.82103401 0.29316902 4293138972
0.2580466 0.82516235 0.28360409 4293138972
0.15659104 0.70521259 0.26867554 4288256409
0.17135006 0.72031432 0.27733713 4288256409
0.24560945 0.8139087 0.33693117 4293138972
0.24429005 0.81489128 0.31540304 4293138972
0.30191788 0.83041817 0.27038833 4293138972
0.11459224 0.65634221 0.2774899 4288256409
0.24452522 0.81154823 0.3425706 4293138972
0.17390326 0.72351998 0.28099042 4288256409
0.18103254 0.72886842 0.30046368 4288256409
0.24741781 0.81454051 0.35218841 4293138972
0.20227328 0.7499193 0.30932298 4288256409
0.24211845 0.79467666 0.30916488 4293138972
0.15843447 0.70422703 0.29323149 4288256409
0.18571433 0.73316282 0.30428913 4288256409
0.2049105 0.75216502 0.31076559 4288256409
0.24697199 0.81913674 0.31520653 4293138972
0.11596407 0.66064888 0.26163581 4288256409
0.11285729 0.65872425 0.26475829 4288256409
0.24535371 0.78436154 0.28286165 4288256409
0.3032386 0.81768322 0.30164197 4293138972
0.25409099 0.82313812 0.29232159 4293138972
0.10877847 0.6482392 0.27400091 4288256409
0.24028791 0.80883282 0.35957581 4293138972
0.24609365 0.81498998 0.3347564 4293138972
0.26146957 0.83262175 0.29974234 4293138972
0.25504857 0.82384944 0.29016593 4293138972
0.29497275 0.84190583 0.26003328 4293138972
0.24842045 0.81883419 0.37909758 4293138972
0.16707808 0.71570373 0.2736069 4288256409
0.19581054 0.73845506 0.27526981 4288256409
0.24558432 0.81756359 0.31611243 4293138972
0.28865412 0.84586233 0.27807006 4293138972
0.12762253 0.66795582 0.28205803 4288256409
0.18087074 0.72553778 0.30206999 4288256409
0.11962279 0.66065484 0.27989194 4288256409
0.245502 0.81785005 0.31804198 4293138972
0.24835326 0.79114932 0.2882483 4288256409
0.15689905 0.70454931 0.2714518 4288256409
0.30481678 0.81940973 0.29576725 4293138972
0.19899911 0.74747604 0.30802068 4288256409
0.19781247 0.74738604 0.30559689 4288256409
0.19805014 0.74763536 0.28312293 4288256409
0.19986552 0.75010222 0.28642961 4288256409
0.25267643 0.82117885 0.29085428 4293138972
0.24047707 0.7924946 0.31844831 4293138972
0.23072727 0.77351236 0.28347036 4288256409
0.24556686 0.81756741 0.31430063 4293138972
0.24425611 0.79671293 0.30968505 4293138972
0.2595202 0.82672811 0.28425869 4293138972
0.10517252 0.64161271 0.27205214 4288256409
0.16439171 0.70938081 0.29679444 4288256409
0.23779556 0.78954679 0.31910005 4288256409
0.1120494 0.6595878 0.27154991 4288256409
0.20179096 0.74687731 0.27850923 4288256409
0.16187985 0.70025766 0.28350419 4288256409
0.1105629 0.65671498 0.27029601 4288256409
0.23903249 0.78899121 0.3202841 4288256409
0.26233834 0.83214039 0.29459628 4293138972
0.14117965 0.68270791 0.28732139 4288256409
0.15849806 0.70273119 0.2936483 4288256409
0.24552472 0.81286347 0.34371424 4293138972
0.23425511 0.78556311 0.31962207 4288256409
0.23614617 0.78717434 0.31973261 4288256409
0.24460566 0.8139689 0.33211654 4293138972
0.21234936 0.76397395 0.2936503 4288256409
0.25322226 0.81974733 0.2886675 4293138972
0.16857894 0.71185976 0.29754084 4288256409
0.23195188 0.78346449 0.32064971 4288256409
0.22703889 0.77357024 0.28683993 4288256409
0.26442331 0.83232003 0.28865424 4293138972
0.23127681 0.78185767 0.31943086 4288256409
0.19510219 0.74123615 0.30820927 4288256409
0.24287568 0.7949968 0.31144202 4293138972
0.18908235 0.73598754 0.30506793 4288256409
0.19693804 0.74616581 0.28244081 4288256409
0.27559659 0.84647125 0.26084849 4293138972
0.10425016 0.64565474 0.26800397 4288256409
0.21550131 0.7656408 0.31324473 4288256409
0.16588649 0.71250689 0.26870251 4288256409
0.23373188 0.78315532 0.32050937 4288256409
0.21774931 0.77011645 0.29109991 4288256409
0.24278401 0.79542792 0.31432673 4293138972
0.24510854 0.7963326 0.29979187 4293138972
0.25219926 0.82167262 0.29500714 4293138972
0.10096529 0.64546818 0.26199141 4288256409
0.16382882 0.70657521 0.28422979 4288256409
0.26659331 0.83320916 0.28191608 4293138972
0.13317466 0.67619646 0.28384364 4288256409
0.2302676 0.77908552 0.32135603 4288256409
0.23535202 0.78236026 0.32136926 4288256409
0.23747185 0.78480369 0.32261133 4288256409
0.24069026 0.79150641 0.32090992 4293138972
0.11480771 0.6545679 0.27740496 4288256409
0.24170545 0.81056213 0.37195048 4293138972
0.24256729 0.81190413 0.372338 4293138972
0.24460477 0.81568658 0.38000777 4293138972
0.23191564 0.77764255 0.32051778 4288256409
0.23384817 0.77993554 0.321473 4288256409
0.22777912 0.77812141 0.32035154 4288256409
0.22936319 0.77935839 0.31806234 4288256409
0.24479339 0.81322205 0.33421093 4293138972
0.10552886 0.64402431 0.27157101 4288256409
0.16362943 0.71194357 0.27576685 4288256409
0.21077482 0.75970769 0.31294414 4288256409
0.21348771 0.76312375 0.31514576 4288256409
0.2119531 0.7618652 0.31204525 4288256409
0.19094011 0.73796105 0.30697697 4288256409
0.19533212 0.73829961 0.30716372 4288256409
0.24269912 0.79392374 0.32099822 4293138972
0.10995314 0.64765793 0.27512953 4288256409
0.2431753 0.81138438 0.33982074 4293138972
0.24301635 0.79576671 0.30730247 4293138972
0.20304669 0.74982601 0.31087613 4288256409
0.22639021 0.77543163 0.31998721 4288256409
0.14066726 0.67891783 0.26427484 4288256409
0.1973145 0.74761629 0.28531006 4288256409
0.12096965 0.66774827 0.27134848 4288256409
0.13615842 0.68370479 0.2752772 4288256409
0.20972477 0.75855958 0.31308851 4288256409
0.24764326 0.79540652 0.2940504 4293138972
0.10374237 0.64082015 0.2713784 4288256409
0.11925222 0.65899724 0.28039157 4288256409
0.16206756 0.70490849 0.29478714 4288256409
0.19567634 0.74609792 0.28626025 4288256409
0.23799805 0.80712789 0.37194785 4293138972
0.21746407 0.76439428 0.31620094 4288256409
0.21987113 0.7656703 0.31736237 4288256409
0.22123766 0.76917249 0.3178001 4288256409
0.22246619 0.77038258 0.31926244 4288256409
0.20168157 0.74746543 0.30947614 4288256409
0.1652904 0.71396613 0.27870193 4288256409
0.24122973 0.79003632 0.32229981 4293138972
0.24498096 0.81246686 0.33642584 4293138972
0.24667126 0.81410873 0.33126169 4293138972
0.22298236 0.76892954 0.31931829 4288256409
0.23914079 0.78616935 0.32584575 4288256409
0.24112432 0.78733552 0.32388452 4288256409
0.2453541 0.81048101 0.33947361 4293138972
0.24005899 0.78921211 0.32524526 4288256409
0.2444773 0.8120656 0.33762392 4293138972
0.21468453 0.76225024 0.3155604 4288256409
0.24631119 0.79867566 0.30327299 4293138972
0.17914034 0.72571301 0.27448103 4288256409
0.10810333 0.64575571 0.27366343 4288256409
0.185928 0.73049438 0.3044326 4288256409
0.18800539 0.73228317 0.30563566 4288256409
0.19033118 0.73378199 0.30637017 4288256409
0.19106823 0.73540223 0.30568266 4288256409
0.24550112 0.811059 0.34406984 4293138972
0.15073895 0.69164819 0.27872106 4288256409
0.24409628 0.79590833 0.307464 4293138972
0.24652891 0.796507 0.29656175 4293138972
0.16293243 0.70933485 0.26944971 4288256409
0.1560827 0.68796796 0.26098344 4288256409
0.16276725 0.71075541 0.27157956 4288256409
0.16668119 0.71315366 0.27062765 4288256409
0.24471289 0.79554993 0.30218798 4293138972
0.1014784 0.64446944 0.26439872 4288256409
0.13982603 0.68127859 0.28784657 4288256409
0.21803391 0.76263958 0.3177368 4288256409
0.21580319 0.7610023 0.3162736 4288256409
0.22012961 0.76391923 0.31840485 4288256409
0.16451371 0.71151727 0.26903716 4288256409
0.19976974 0.74398863 0.31044129 4288256409
0.15559322 0.70342934 0.26828635 4288256409
0.14142251 0.67935503 0.26741302 4288256409
0.14938906 0.68283659 0.2716006 4288256409
0.13371481 0.67537177 0.28524187 4288256409
0.15464778 0.70123011 0.26742408 4288256409
0.21480046 0.75924128 0.31436667 4288256409
0.21812221 0.76009607 0.31603584 4288256409
0.21839456 0.76320982 0.31622252 4288256409
0.24340636 0.79613137 0.31627426 4293138972
0.26580334 0.83330041 0.2849797 4293138972
0.25062355 0.82084805 0.38198349 4293138972
0.19728145 0.74031776 0.31010896 4288256409
0.14422336 0.68412173 0.28124535 4288256409
0.24889039 0.81934726 0.38135371 4293138972
0.19422252 0.73720372 0.30765557 4288256409
0.22876748 0.77634025 0.31984237 4288256409
0.25618616 0.82305932 0.35083336 4293138972
0.2452963 0.81060922 0.35108066 4293138972
0.24640612 0.81283438 0.34381241 4293138972
0.24651258 0.79683894 0.29537597 4293138972
0.16900265 0.71657521 0.27191436 4288256409
0.23317163 0.77980626 0.32516158 4288256409
0.17673866 0.72455919 0.27425557 4288256409
0.24392413 0.79723161 0.31431869 4293138972
0.26261446 0.83295816 0.29666224 4293138972
0.20701617 0.75629371 0.31232345 4288256409
0.24423163 0.7956599 0.30368263 4293138972
0.23838314 0.80757624 0.37350488 4293138972
0.15090126 0.69791341 0.27080488 4288256409
0.24235351 0.80935174 0.35029769 4293138972
0.14826581 0.68947673 0.2895909 4288256409
0.16946401 0.71064991 0.29858425 4288256409
0.20860097 0.75547767 0.31311813 4288256409
0.21137714 0.75637156 0.31312656 4288256409
0.25117961 0.79601192 0.29164228 4293138972
0.21215075 0.75682449 0.31533191 4288256409
0.25893024 0.82372177 0.27607694 4293138972
0.14686923 0.69281149 0.26692778 4288256409
0.20365924 0.74795872 0.31108928 4288256409
0.24340519 0.79388326 0.32295352 4293138972
0.24360038 0.79684025 0.31983843 4293138972
0.10077915 0.64151287 0.26808918 4288256409
0.11768308 0.6572926 0.27918074 4288256409
0.18622349 0.72893542 0.30473876 4288256409
0.18821783 0.73108345 0.30602229 4288256409
0.20896515 0.75357801 0.31311855 4288256409
0.20210245 0.74566489 0.31071064 4288256409
0.20623751 0.7520889 0.31236058 4288256409
0.13374981 0.67322344 0.28547776 4288256409
0.15191916 0.69365692 0.29118127 4288256409
0.1114845 0.65782112 0.26284847 4288256409
0.12478681 0.66466761 0.28216773 4288256409
0.20154299 0.7436772 0.31085452 4288256409
0.14452475 0.69137019 0.26525298 4288256409
0.17015138 0.71924818 0.28614655 4288256409
0.24179903 0.78743672 0.32650471 4293138972
0.1672716 0.71024066 0.29725596 4288256409
0.24164495 0.7908569 0.32721123 4293138972
0.25704727 0.82283533 0.27572101 4293138972
0.17360295 0.71754581 0.30004698 4288256409
0.17686433 0.72002071 0.30134174 4288256409
0.2449894 0.81010175 0.33988491 4293138972
0.16788298 0.70900893 0.29826018 4288256409
0.15384595 0.69421822 0.28378078 4288256409
0.15530978 0.69757384 0.28436655 4288256409
0.24795616 0.79848987 0.3000643 4293138972
0.23638582 0.78125519 0.32460967 4288256409
0.16268642 0.70383942 0.29588571 4288256409
0.16381751 0.70350224 0.29703677 4288256409
0.24030146 0.80940509 0.37592158 4293138972
0.17522804 0.71658605 0.30083457 4288256409
0.17952107 0.72250867 0.30429336 4288256409
0.24254444 0.80926275 0.35782671 4293138972
0.17219941 0.71341711 0.30059314 4288256409
0.20425168 0.74757439 0.31172094 4288256409
0.20262484 0.7535429 0.29596666 4288256409
0.13219194 0.67295963 0.28445292 4288256409
0.13807754 0.67689162 0.28681728 4288256409
0.24387151 0.8125692 0.3773739 4293138972
0.15757512 0.69845915 0.29429427 4288256409
0.17131266 0.71069062 0.30108729 4288256409
0.17640968 0.71721166 0.30238146 4288256409
0.20011213 0.74252927 0.31034547 4288256409
0.14386486 0.68466699 0.28922907 4288256409
0.2411171 0.81146967 0.38226071 4293138972
0.19608906 0.73827416 0.30806276 4288256409
0.15095322 0.69228619 0.29271436 4288256409
0.19415011 0.73424906 0.30804718 4288256409
0.1980506 0.7382701 0.30912811 4288256409
0.15639174 0.70406002 0.26950964 4288256409
0.15585957 0.69636571 0.29367098 4288256409
0.2064034 0.74983275 0.31330863 4288256409
0.17125225 0.70915502 0.2997359 4288256409
0.17423341 0.71486765 0.30023065 4288256409
0.11965924 0.65713263 0.28020248 4288256409
0.11350508 0.65246058 0.27659705 4288256409
0.24796671 0.79989296 0.30171773 4293138972
0.14423193 0.68294227 0.28976414 4288256409
0.14765731 0.68783408 0.29181644 4288256409
0.16776422 0.70682377 0.29992619 4288256409
0.20488931 0.74529123 0.31170574 4288256409
0.10910775 0.64594382 0.27558675 4288256409
0.17504565 0.72278196 0.2760883 4288256409
0.24548399 0.79940224 0.31525174 4293138972
0.15388136 0.6951313 0.29280663 4288256409
0.19066323 0.73112845 0.30793545 4288256409
0.17151807 0.7193383 0.27482277 4288256409
0.24420883 0.79613531 0.32271746 4293138972
0.10677549 0.64397699 0.27356714 4288256409
0.24671714 0.81588882 0.32964221 4293138972
0.13203134 0.67129916 0.28603846 4288256409
0.14904645 0.68610728 0.29205722 4288256409
0.24435182 0.79509801 0.32681468 4293138972
0.25416815 0.82202405 0.28609464 4293138972
0.16497049 0.71280861 0.27208567 4288256409
0.19968601 0.74293351 0.30909479 4288256409
0.25615692 0.82265538 0.2838026 4293138972
0.16029349 0.6964162 0.27383548 4288256409
0.2439902 0.79154319 0.32733771 4293138972
0.1920756 0.74143028 0.28164864 4288256409
0.19020395 0.73743725 0.27914357 4288256409
0.21720162 0.75969118 0.31467959 4288256409
0.24653763 0.81407696 0.33702183 4293138972
0.25457373 0.79577482 0.28944233 4293138972
0.21619904 0.75978291 0.30828649 4288256409
0.20784248 0.75482225 0.30701196 4288256409
0.23750143 0.80627728 0.37354639 4293138972
0.23899591 0.80871207 0.37514693 4293138972
0.18649864 0.7273466 0.30511764 4288256409
0.1531574 0.70089841 0.27263868 4288256409
0.16368438 0.69855493 0.27849534 4288256409
0.12342291 0.66334349 0.28183275 4288256409
0.16319798 0.70259738 0.29716262 4288256409
0.24930994 0.81997162 0.38547316 4293138972
0.22706214 0.77221823 0.31910551 4288256409
0.24649462 0.79991436 0.30746508 4293138972
0.12244481 0.6628046 0.28181851 4288256409
0.1383706 0.67796797 0.28898361 4288256409
0.22377864 0.76658136 0.31989664 4288256409
0.16498971 0.70382613 0.299869 4288256409
0.24672249 0.79860866 0.29497871 4293138972
0.25935134 0.82048506 0.26538506 4293138972
0.16388324 0.70159167 0.28671211 4288256409
0.23767824 0.8056156 0.36910698 4293138972
0.28939724 0.84969312 0.26440087 4293138972
0.12242483 0.66101313 0.28204408 4288256409
0.18326588 0.7286402 0.27368829 4288256409
0.13756429 0.67528653 0.28847307 4288256409
0.14101179 0.67957503 0.29101703 4288256409
0.11318401 0.65028661 0.27683851 4288256409
0.18455972 0.72551209 0.30482349 4288256409
0.23568587 0.80537057 0.37260503 4293138972
0.13094838 0.66943789 0.28552949 4288256409
0.24564698 0.80019957 0.31854457 4293138972
0.17609531 0.72049379 0.27027538 4288256409
0.24713022 0.8010096 0.31069091 4293138972
0.13276593 0.66958392 0.28681222 4288256409
0.2445568 0.79297894 0.33132008 4293138972
0.24612463 0.80057019 0.30826843 4293138972
0.25220564 0.79948008 0.29266199 4293138972
0.2482743 0.80116856 0.29982316 4293138972
0.12795924 0.66579199 0.28496081 4288256409
0.15663502 0.69647825 0.29638717 4288256409
0.26647043 0.83430785 0.28464574 4293138972
0.13085963 0.66707522 0.28573143 4288256409
0.26251465 0.83125365 0.38172191 4293138972
0.19210778 0.73228955 0.27250215 4288256409
0.15974666 0.69531769 0.2824958 4288256409
0.15521653 0.69531351 0.29658085 4288256409
0.1898783 0.72922075 0.30791137 4288256409
0.23672782 0.80479646 0.37636799 4293138972
0.241447 0.81039518 0.38070706 4293138972
0.14344178 0.68252784 0.29166147 4288256409
0.18234563 0.72349656 0.30493861 4288256409
0.26055136 0.82925242 0.38748315 4293138972
0.17594154 0.71994168 0.29314429 4288256409
0.23496583 0.80352044 0.37516412 4293138972
0.2609145 0.83081257 0.38565776 4293138972
0.28321373 0.84802157 0.26122126 4293138972
0.28603184 0.84867418 0.26252997 4293138972
0.23414658 0.80387831 0.37335736 4293138972
0.24679562 0.80050534 0.32287654 4293138972
0.26328474 0.83146596 0.37257558 4293138972
0.23516795 0.7774514 0.32334909 4288256409
0.12345658 0.66023088 0.28320155 4288256409
0.27478424 0.84624666 0.30810237 4293138972
0.27214628 0.84611386 0.31503752 4293138972
0.15075672 0.68982321 0.2945025 4288256409
0.16112265 0.69907016 0.29579708 4288256409
0.1839577 0.72386092 0.30604771 4288256409
0.20883268 0.74965072 0.31495073 4288256409
0.21269535 0.75410467 0.31483898 4288256409
0.21922277 0.75950652 0.31712073 4288256409
0.26607096 0.83685303 0.35304952 4293138972
0.15407176 0.69189012 0.29510248 4288256409
0.26268157 0.83147401 0.37787858 4293138972
0.12961932 0.67057306 0.26086402 4288256409
0.20843422 0.74757296 0.31460738 4288256409
0.26059934 0.82980388 0.37896511 4293138972
0.24542035 0.80113184 0.3177155 4293138972
0.17694578 0.71560514 0.30285823 4288256409
0.26321751 0.83319193 0.36331838 4293138972
0.21249123 0.75338233 0.31776148 4288256409
0.22834076 0.77153546 0.32163721 4288256409
0.22971876 0.77440661 0.32353178 4288256409
0.26511401 0.83595192 0.3554596 4293138972
0.26967961 0.84524596 0.32464027 4293138972
0.27035072 0.84543663 0.32065618 4293138972
0.12485664 0.65934259 0.28420362 4288256409
0.2375399 0.80525869 0.37828654 4293138972
0.23884608 0.80697149 0.37953258 4293138972
0.12881628 0.66918308 0.26654792 4288256409
0.23114008 0.77197856 0.32208365 4288256409
0.24689674 0.80257154 0.31337845 4293138972
0.26089308 0.82846743 0.38951784 4293138972
0.12211964 0.65900719 0.28324789 4288256409
0.26536095 0.83503944 0.36327189 4293138972
0.2434691 0.78928405 0.3319883 4293138972
0.23708992 0.80334669 0.3778269 4293138972
0.24570392 0.81486309 0.38520896 4293138972
0.2112478 0.7514742 0.31545788 4288256409
0.21396227 0.75484294 0.31792983 4288256409
0.17829029 0.71546555 0.2918326 4288256409
0.1359596 0.67380589 0.28885666 4288256409
0.2034725 0.74244779 0.3118771 4288256409
0.21109608 0.74747902 0.31493884 4288256409
0.19767687 0.73674881 0.3108955 4288256409
0.20019557 0.73869622 0.31181589 4288256409
0.23962414 0.78420275 0.3300893 4288256409
0.26366439 0.83332139 0.36616072 4293138972
0.11465253 0.65099627 0.27977073 4288256409
0.26394045 0.83600986 0.35237429 4293138972
0.19945343 0.7360853 0.31209388 4288256409
0.20263928 0.74018466 0.31232396 4288256409
0.26546615 0.83546364 0.35876289 4293138972
0.25665045 0.82204604 0.27673855 4293138972
0.2466494 0.79762083 0.32741857 4293138972
0.11180679 0.64895803 0.27821013 4288256409
0.2464682 0.80027294 0.32677454 4293138972
0.19478732 0.73268175 0.30947381 4288256409
0.26004165 0.83000535 0.37663254 4293138972
0.1315558 0.67289513 0.27064216 4288256409
0.15646254 0.69425052 0.29619026 4288256409
0.16059448 0.69848043 0.29889563 4288256409
0.25309733 0.82230204 0.2809054 4293138972
0.24177976 0.78623235 0.33121064 4293138972
0.1976074 0.73451048 0.31043786 4288256409
0.27288795 0.84545755 0.30879715 4293138972
0.18286783 0.72188741 0.30472329 4288256409
0.1347543 0.6795224 0.27723891 4288256409
0.23568088 0.80361062 0.37672031 4293138972
0.18213338 0.72028852 0.30430958 4288256409
0.24620859 0.80147707 0.31191963 4293138972
0.24252698 0.80203044 0.34839171 4293138972
0.1895712 0.72737885 0.30943716 4288256409
0.21422188 0.75099897 0.31568226 4288256409
0.2543796 0.81521815 0.26004532 4293138972
0.18727449 0.72542226 0.30883777 4288256409
0.19480453 0.73011321 0.3086825 4288256409
0.25644973 0.81445593 0.26144895 4293138972
0.10636235 0.64370781 0.27602097 4288256409
0.10885263 0.64507484 0.27755001 4288256409
0.26472053 0.83415633 0.36822751 4293138972
0.22099866 0.7615242 0.3214716 4288256409
0.12336022 0.66517204 0.26218337 4288256409
0.16619273 0.7096833 0.29245993 4288256409
0.1765497 0.71808797 0.29771307 4288256409
0.27876031 0.84536147 0.29465005 4293138972
0.1230996 0.66599464 0.2697995 4288256409
0.12988056 0.67411917 0.27158076 4288256409
0.2657758 0.835949 0.36155617 4293138972
0.24395296 0.80597699 0.32131889 4293138972
0.13226609 0.67474937 0.26727968 4288256409
0.26467648 0.83457142 0.37196192 4293138972
