# .PCD v0.7 - Point Cloud Data file format
VERSION 0.7
FIELDS x y z rgba
SIZE 4 4 4 4
TYPE F F F U
COUNT 1 1 1 1
WIDTH 1091
HEIGHT 1
VIEWPOINT 0 0 0 1 0 0 0
POINTS 1091
DATA ascii
0.1080538 0.64384097 0.27895293 4288256409
0.22362891 0.7709654 0.31905222 4288256409
0.20456119 0.73951352 0.31103468 4288256409
0.15293925 0.69413763 0.29728791 4288256409
0.087272778 0.62035513 0.27149391 4288256409
0.25308257 0.79225743 0.3410503 4293138972
0.25247967 0.79401767 0.33289081 4293138972
0.18280989 0.72425938 0.30435228 4288256409
0.17618144 0.71890622 0.30119476 4288256409
0.105672 0.66013521 0.27429593 4288256409
0.096673511 0.63054556 0.27456632 4288256409
0.09283644 0.62301439 0.27233046 4288256409
0.093600459 0.62715483 0.27373609 4288256409
0.090374567 0.61868054 0.27060774 4288256409
0.24556617 0.80960691 0.38472229 4293138972
0.19807236 0.74950647 0.3113769 4288256409
0.17920949 0.71512145 0.30061147 4288256409
0.18368229 0.72588867 0.3009524 4288256409
0.13309656 0.66360605 0.2873717 4288256409
0.11039275 0.65473616 0.27665266 4288256409
0.10349999 0.64156824 0.27790195 4288256409
0.28767875 0.83186293 0.39515156 4293138972
0.25094023 0.83637202 0.28716308 4293138972
0.20800193 0.75120431 0.31237885 4288256409
0.18901198 0.73485148 0.30343792 4288256409
0.1626593 0.69958395 0.29859427 4288256409
0.10302098 0.63778335 0.27780572 4288256409
0.22023544 0.7633056 0.31578305 4288256409
0.20993887 0.74710727 0.31129488 4288256409
0.18543768 0.72364306 0.30229515 4288256409
0.16941458 0.69653279 0.29626042 4288256409
0.12685187 0.67515045 0.28649119 4288256409
0.11546662 0.65434361 0.28089577 4288256409
0.11236675 0.65109885 0.27910852 4288256409
0.10873346 0.6380108 0.27710608 4288256409
0.24682891 0.80109572 0.34204116 4293138972
0.24480137 0.8314001 0.32649815 4293138972
0.25128657 0.82212168 0.29969957 4293138972
0.22457206 0.76862484 0.3147881 4288256409
0.1258973 0.68374938 0.27845323 4288256409
0.25100911 0.79124027 0.35705853 4293138972
0.22312547 0.77771413 0.32097888 4288256409
0.21050289 0.7498318 0.31360462 4288256409
0.20906369 0.75601566 0.31611818 4288256409
0.16819367 0.71487767 0.3003363 4288256409
0.14619003 0.70964611 0.28779161 4288256409
0.1221292 0.68246192 0.28009635 4288256409
0.1108472 0.64801812 0.27903822 4288256409
0.11073466 0.65182418 0.27819294 4288256409
0.088170804 0.61889815 0.27023143 4288256409
0.24839698 0.79692692 0.33845708 4293138972
0.25076586 0.78880221 0.32429692 4288256409
0.24487281 0.83165711 0.3218545 4293138972
0.1118497 0.66605377 0.27992314 4288256409
0.26736894 0.83011723 0.39216024 4293138972
0.24877208 0.79447526 0.34370005 4293138972
0.25027019 0.83231592 0.28832325 4293138972
0.20891482 0.75162399 0.3083936 4288256409
0.20594695 0.75131315 0.30816671 4288256409
0.17275815 0.7046349 0.30131423 4288256409
0.12101064 0.65981013 0.2819925 4288256409
0.11375034 0.65192163 0.27983698 4288256409
0.10268494 0.65803909 0.27321425 4288256409
0.095624365 0.65187442 0.27581322 4288256409
0.26067835 0.80605376 0.38884157 4293138972
0.23616558 0.78692967 0.32456222 4288256409
0.21788107 0.76175237 0.31472644 4288256409
0.2040164 0.75064135 0.30672911 4288256409
0.17751437 0.72339696 0.30276465 4288256409
0.16086604 0.72280937 0.29115438 4288256409
0.11344086 0.64261919 0.27920586 4288256409
0.11006552 0.66236925 0.28200725 4288256409
0.10087197 0.6545592 0.27247304 4288256409
0.25835556 0.78661102 0.37767598 4293138972
0.2551131 0.78670567 0.37571794 4293138972
0.24351102 0.81821167 0.36898583 4293138972
0.25040087 0.81776136 0.30737272 4293138972
0.22040617 0.77148741 0.31218505 4288256409
0.15939136 0.69566953 0.29873759 4288256409
0.16200951 0.70430064 0.29767492 4288256409
0.11566203 0.64488256 0.28034914 4288256409
0.085827492 0.62149835 0.27007228 4288256409
0.24165744 0.7863782 0.32208595 4288256409
0.22399709 0.76814079 0.3191604 4288256409
0.22343582 0.7751022 0.32013011 4288256409
0.25721532 0.82068115 0.27265748 4293138972
0.22131355 0.76917493 0.31041136 4288256409
0.18273331 0.7247957 0.29912791 4288256409
0.15156868 0.69443148 0.29616642 4288256409
0.24866486 0.81618333 0.38816363 4293138972
0.25171834 0.79202944 0.34945041 4293138972
0.21175966 0.75839585 0.31043893 4288256409
0.20130618 0.7394945 0.30731457 4288256409
0.19739743 0.74045718 0.30463442 4288256409
0.15597682 0.69531441 0.29748344 4288256409
0.097797744 0.63082945 0.27536479 4288256409
0.082855582 0.62477982 0.26773331 4288256409
0.074448705 0.62869817 0.26224506 4288256409
0.24890029 0.79671896 0.35172078 4293138972
0.1661543 0.70673066 0.30197981 4288256409
0.16241686 0.70599174 0.29456252 4288256409
0.13068454 0.67648542 0.28379321 4288256409
0.1146962 0.65067863 0.28094983 4288256409
0.13230954 0.67728144 0.26936477 4288256409
0.093327612 0.62598592 0.27279288 4288256409
0.26704735 0.78496951 0.38319099 4293138972
0.25370872 0.790434 0.34360248 4293138972
0.25108019 0.81518734 0.30708739 4293138972
0.15618709 0.69703227 0.29802677 4288256409
0.12540503 0.66069609 0.28646821 4288256409
0.12971152 0.69139373 0.28138465 4288256409
0.25188637 0.83336455 0.38602081 4293138972
0.25469872 0.79366219 0.32981721 4293138972
0.24689974 0.83713591 0.30341402 4293138972
0.21419512 0.76240611 0.30941218 4288256409
0.2034515 0.75702053 0.31271482 4288256409
0.19675599 0.74079889 0.31090465 4288256409
0.20299473 0.7491709 0.30439842 4288256409
0.15606816 0.68405658 0.29355535 4288256409
0.13754044 0.68446231 0.26761064 4288256409
0.11497806 0.64619011 0.28119454 4288256409
0.10518156 0.64100707 0.27974415 4288256409
0.096612126 0.62936503 0.27330425 4288256409
0.24292968 0.81937665 0.36176634 4293138972
0.24818602 0.79710269 0.34176415 4293138972
0.23455663 0.77241153 0.32320866 4288256409
0.21326873 0.7449711 0.31311703 4288256409
0.20165816 0.74300247 0.3052578 4288256409
0.1986886 0.74699426 0.30608934 4288256409
0.18441448 0.71774197 0.30132255 4288256409
0.15924565 0.69911116 0.29971945 4288256409
0.12820575 0.6898033 0.27987301 4288256409
0.11892232 0.65215778 0.28381845 4288256409
0.24994034 0.79154456 0.32314855 4288256409
0.25433305 0.83456004 0.26673764 4293138972
0.20424804 0.74229038 0.3095926 4288256409
0.19276193 0.73402923 0.30303761 4288256409
0.15513322 0.69398803 0.29550532 4288256409
0.14467554 0.70824689 0.28649023 4288256409
0.28955147 0.83887947 0.39831007 4293138972
0.25317261 0.78735459 0.37259293 4293138972
0.24830011 0.79328001 0.35596111 4293138972
0.25539434 0.81928855 0.28335771 4293138972
0.26100603 0.81609595 0.26186228 4293138972
0.25539273 0.82558781 0.27026969 4293138972
0.19983633 0.73716575 0.30734888 4288256409
0.15184531 0.68788558 0.29604569 4288256409
0.081299685 0.61690539 0.27053362 4288256409
0.22754183 0.77628148 0.31640348 4288256409
0.25097504 0.82275671 0.28756604 4293138972
0.21364939 0.7524578 0.31084904 4288256409
0.1297643 0.68621385 0.28085756 4288256409
0.08355698 0.6153174 0.27010232 4288256409
0.28758991 0.82674062 0.39475569 4293138972
0.26325771 0.83563471 0.38999835 4293138972
0.25264537 0.81464344 0.3886947 4293138972
0.25581044 0.78807366 0.37904444 4293138972
0.24874765 0.80978495 0.38678071 4293138972
0.2127883 0.75023431 0.31558752 4288256409
0.19005521 0.72922289 0.30775115 4288256409
0.18144488 0.72730583 0.30290049 4288256409
0.18211511 0.74144191 0.29805118 4288256409
0.1389679 0.68433064 0.29246268 4288256409
0.10340901 0.6322732 0.27536309 4288256409
0.086535983 0.61527413 0.26920629 4288256409
0.081646919 0.61390841 0.2690022 4288256409
0.082267031 0.61988944 0.26970401 4288256409
0.07884118 0.61102295 0.26712608 4288256409
0.072864123 0.62248892 0.26081708 4288256409
0.25362971 0.78948432 0.34911987 4293138972
0.17050743 0.71329814 0.3007659 4288256409
0.14470254 0.70558834 0.28676295 4288256409
0.085155845 0.61371493 0.26858437 4288256409
0.27705809 0.78860521 0.38497105 4293138972
0.27417448 0.78450602 0.38270301 4293138972
0.25518429 0.8346318 0.38711417 4293138972
0.24310222 0.81732643 0.38139406 4293138972
0.25350383 0.7898978 0.35630783 4293138972
0.23305009 0.78818554 0.3184779 4288256409
0.13700701 0.69436109 0.28202137 4288256409
0.10770833 0.64098835 0.27947322 4288256409
0.080079563 0.61513138 0.26726642 4288256409
0.24507447 0.82529885 0.32034227 4293138972
0.22936918 0.77545655 0.31853357 4288256409
0.20013747 0.74972463 0.30304629 4288256409
0.16943562 0.70802093 0.30230302 4288256409
0.16184762 0.70224458 0.29541954 4288256409
0.13875687 0.70130831 0.28339452 4288256409
0.12995574 0.67847276 0.28698382 4288256409
0.082190879 0.61237955 0.26858565 4288256409
0.28624231 0.78872371 0.3869338 4293138972
0.26982367 0.78846145 0.38296092 4293138972
0.26146689 0.78672522 0.38156646 4293138972
0.25848907 0.78874594 0.33626804 4293138972
0.24363838 0.82716948 0.33409354 4293138972
0.19090442 0.73143232 0.30244613 4288256409
0.17003499 0.71449959 0.30378082 4288256409
0.14285804 0.69509858 0.29224154 4288256409
0.08855319 0.61674601 0.26989552 4288256409
0.25134081 0.84852159 0.33082142 4293138972
0.25008342 0.79734516 0.32155582 4293138972
0.17773011 0.71679205 0.29911572 4288256409
0.14947377 0.67807794 0.29177943 4288256409
0.1401411 0.68979764 0.29062536 4288256409
0.12985533 0.66285038 0.28587115 4288256409
0.12863444 0.67408484 0.28405651 4288256409
0.12615371 0.67167175 0.28224793 4288256409
0.09768977 0.63273567 0.27574039 4288256409
0.25259337 0.80974919 0.38717139 4293138972
0.25753623 0.78432339 0.37328583 4293138972
0.2512894 0.78836828 0.36316529 4293138972
0.24597552 0.79918092 0.35386091 4293138972
0.24671188 0.77641714 0.32416794 4288256409
0.2345255 0.79057276 0.32484165 4288256409
0.23120236 0.77157956 0.31976059 4288256409
0.23073007 0.78768164 0.31568402 4288256409
0.25210512 0.82794029 0.28640813 4293138972
0.13555565 0.69653821 0.28313982 4288256409
0.25706989 0.78947824 0.3299461 4293138972
0.25092351 0.79987592 0.32689753 4293138972
0.24246512 0.79085135 0.32125348 4288256409
0.16993603 0.71446365 0.29582438 4288256409
0.13097812 0.68931955 0.27985761 4288256409
0.09379033 0.6217432 0.27183878 4288256409
0.26405606 0.78820026 0.38364077 4293138972
0.25211543 0.80525446 0.38670114 4293138972
0.24993046 0.81615597 0.31169957 4293138972
0.18890987 0.72823423 0.30182374 4288256409
0.16767262 0.70516932 0.30231762 4288256409
0.087099738 0.64029616 0.26721826 4288256409
0.080286011 0.62066501 0.26749787 4288256409
0.24938926 0.7956571 0.37222272 4293138972
0.089715555 0.62106204 0.27080792 4288256409
0.083621114 0.61932689 0.26948211 4288256409
0.27976215 0.7870031 0.38576618 4293138972
0.27209166 0.78608096 0.38419503 4293138972
0.26639763 0.78318232 0.38068315 4293138972
0.26465553 0.78532153 0.38143599 4293138972
0.25921789 0.78362739 0.37671664 4293138972
0.25201094 0.78832972 0.36876419 4293138972
0.24487393 0.79837924 0.36096326 4293138972
0.25686017 0.81920022 0.27651972 4293138972
0.20990495 0.75479054 0.30824009 4288256409
0.15153056 0.69398856 0.294559 4288256409
0.13759619 0.69845444 0.28410512 4288256409
0.25557864 0.78547597 0.3709271 4293138972
0.24623616 0.79602826 0.37244287 4293138972
0.24996322 0.80269694 0.3287985 4293138972
0.2584995 0.82178766 0.26049909 4293138972
0.18573745 0.72857428 0.30052763 4288256409
0.18106116 0.72479224 0.29949695 4288256409
0.15275191 0.71522611 0.28921196 4288256409
0.28715402 0.823627 0.39298284 4293138972
0.25354534 0.79212451 0.37725008 4293138972
0.25383228 0.78685278 0.36167675 4293138972
0.24216822 0.80178469 0.3709875 4293138972
0.25444132 0.78823066 0.35630614 4293138972
0.24678193 0.79686451 0.36279872 4293138972
0.25807372 0.83219028 0.38856018 4293138972
0.25345883 0.81833333 0.38521454 4293138972
0.24146757 0.81194311 0.37385401 4293138972
0.24528965 0.80309016 0.35101745 4293138972
0.23083425 0.77168822 0.31638449 4288256409
0.25849867 0.82433647 0.26136804 4293138972
0.17397459 0.71454453 0.30403486 4288256409
0.10700798 0.6387527 0.27686492 4288256409
0.087289549 0.62281138 0.2700448 4288256409
0.25218311 0.79126436 0.3533476 4293138972
0.24270338 0.80272049 0.36142948 4293138972
0.25262007 0.79878926 0.32902932 4293138972
0.24993272 0.81297863 0.31312686 4293138972
0.25168458 0.81694174 0.30032721 4293138972
0.25367311 0.81861305 0.29046032 4293138972
0.22137849 0.76179761 0.31763124 4288256409
0.12123112 0.65720844 0.28520036 4288256409
0.1106739 0.66589916 0.28235728 4288256409
0.24794428 0.8049854 0.38384765 4293138972
0.24530822 0.808761 0.38260925 4293138972
0.24527864 0.80579907 0.34406158 4293138972
0.24487238 0.80441785 0.33897102 4293138972
0.25412235 0.83685678 0.26554263 4293138972
0.20585959 0.7485587 0.30848128 4288256409
0.12901613 0.67206448 0.28580716 4288256409
0.076789185 0.6137132 0.264397 4288256409
0.24830495 0.80765551 0.38522121 4293138972
0.25542715 0.78395051 0.36841622 4293138972
0.24196117 0.8244161 0.37534812 4293138972
0.25001311 0.79350626 0.36894146 4293138972
0.24056409 0.80938345 0.36697072 4293138972
0.24390936 0.81147754 0.34492069 4293138972
0.1671259 0.70962614 0.30097866 4288256409
0.15345791 0.71185946 0.29098785 4288256409
0.2611126 0.78317845 0.37416756 4293138972
0.24463359 0.82009506 0.38515967 4293138972
0.25554794 0.78808612 0.34674591 4293138972
0.25127599 0.8009752 0.33117855 4293138972
0.14876905 0.69994354 0.29586321 4288256409
0.26402503 0.78252631 0.37878826 4293138972
0.25755584 0.78220111 0.37021619 4293138972
0.25399303 0.78573877 0.36633217 4293138972
0.25710487 0.78597063 0.36040235 4293138972
0.24694943 0.79866689 0.34340721 4293138972
0.24370752 0.80780798 0.33965051 4293138972
0.10034492 0.65101123 0.2718485 4288256409
0.25770813 0.81534463 0.38993499 4293138972
0.24790263 0.81418973 0.38518152 4293138972
0.24347845 0.80717742 0.34722903 4293138972
0.25163898 0.81016666 0.31118873 4293138972
0.25589728 0.81694955 0.28090423 4293138972
0.10100324 0.65204656 0.277347 4288256409
0.24779978 0.81964582 0.38097835 4293138972
0.24142219 0.81247121 0.3776989 4293138972
0.25594836 0.78654283 0.35769957 4293138972
0.25511393 0.7877295 0.35232013 4293138972
0.25307077 0.78927922 0.35278109 4293138972
0.25260863 0.79086274 0.34674191 4293138972
0.24497974 0.81045717 0.33488551 4293138972
0.24770404 0.83129913 0.32231164 4293138972
0.2505393 0.82636231 0.29145345 4293138972
0.25467229 0.81676972 0.28717932 4293138972
0.25741762 0.81568539 0.27763823 4293138972
0.16052601 0.69941038 0.29647213 4288256409
0.15724911 0.69018894 0.29547969 4288256409
0.14185101 0.68713385 0.29157785 4288256409
0.11334623 0.66838056 0.2834166 4288256409
0.2556251 0.826002 0.26161802 4293138972
0.13233337 0.68739969 0.28720263 4288256409
0.093174808 0.61999124 0.2710079 4288256409
0.29896411 0.82407129 0.39380616 4293138972
0.28188026 0.81777114 0.39435646 4293138972
0.24968551 0.80398625 0.38129112 4293138972
0.24248938 0.81048161 0.38119602 4293138972
0.24204354 0.81275964 0.38227969 4293138972
0.24650741 0.82637089 0.37452883 4293138972
0.24196698 0.82108074 0.36427978 4293138972
0.2444738 0.81858981 0.32917729 4293138972
0.24578461 0.82379615 0.31437108 4293138972
0.25305867 0.82235962 0.29205319 4293138972
0.15387042 0.7108447 0.29634833 4288256409
0.14624909 0.67307746 0.28909674 4288256409
0.13251169 0.67835629 0.28381443 4288256409
0.25945494 0.82804912 0.38861811 4293138972
0.2466709 0.81619787 0.38751766 4293138972
0.24309112 0.79951012 0.37240994 4293138972
0.25016379 0.79152441 0.36229894 4293138972
0.24154621 0.81686062 0.36559328 4293138972
0.24656987 0.79994661 0.35049576 4293138972
0.24781261 0.82499218 0.33302331 4293138972
0.2573036 0.78860766 0.32750672 4293138972
0.24886729 0.83192623 0.28421971 4293138972
0.16382705 0.69987041 0.29640236 4288256409
0.111283 0.65630054 0.27649456 4288256409
0.088775381 0.61502969 0.26934111 4288256409
0.26574177 0.82491177 0.39018986 4293138972
0.25552577 0.81958586 0.38720766 4293138972
0.24700801 0.81884938 0.38567749 4293138972
0.24787278 0.7955516 0.37840983 4293138972
0.2441172 0.80173254 0.36338732 4293138972
0.24416499 0.80293709 0.34666994 4293138972
0.24496771 0.80322486 0.34248221 4293138972
0.25167936 0.80157536 0.32183895 4293138972
0.24750137 0.82139885 0.30903035 4293138972
0.24854994 0.82936782 0.30494663 4293138972
0.24862662 0.82539922 0.29672173 4293138972
0.18994109 0.73403382 0.30467385 4288256409
0.14320409 0.67189443 0.28815022 4288256409
0.24476142 0.8103714 0.36849168 4293138972
0.24718717 0.82736009 0.31478906 4293138972
0.23431462 0.7775631 0.31732258 4288256409
0.25541222 0.82318574 0.27895156 4293138972
0.19265829 0.72911304 0.30577946 4288256409
0.14164004 0.68915296 0.28817171 4288256409
0.13902132 0.6961109 0.28329253 4288256409
0.10532361 0.64134264 0.27613285 4288256409
0.078555256 0.61682272 0.26952717 4288256409
0.25919211 0.8089385 0.3892279 4293138972
0.24627554 0.79926938 0.37875047 4293138972
0.25732452 0.78588432 0.35475856 4293138972
0.24197973 0.80527312 0.36296505 4293138972
0.2488644 0.80864704 0.32437912 4293138972
0.24683835 0.82506925 0.30402851 4293138972
0.21893039 0.76547253 0.30987245 4288256409
0.27002007 0.82487714 0.39288628 4293138972
0.27805293 0.7863996 0.38404483 4293138972
0.2638174 0.82000798 0.39198586 4293138972
0.25631335 0.82340986 0.38818249 4293138972
0.24143244 0.81960732 0.38122776 4293138972
0.25656906 0.78422296 0.36404288 4293138972
0.2430723 0.80495101 0.37401369 4293138972
0.24163699 0.80597752 0.35674024 4293138972
0.24370559 0.81447345 0.33260775 4293138972
0.24890946 0.80650914 0.32569301 4293138972
0.13738692 0.66751218 0.28794524 4288256409
0.12562655 0.6532951 0.28357458 4288256409
0.26065335 0.81531543 0.39043978 4293138972
0.24466477 0.82173741 0.37711796 4293138972
0.24160674 0.82539284 0.35259044 4293138972
0.25045323 0.83399993 0.29524633 4293138972
0.25469586 0.83425295 0.28368348 4293138972
0.16088803 0.693434 0.29515859 4288256409
0.13664624 0.68975562 0.28371096 4288256409
0.10292713 0.65406448 0.27189204 4288256409
0.28665537 0.81941438 0.39204866 4293138972
0.25670543 0.83252978 0.38763016 4293138972
0.26193479 0.78398561 0.37722987 4293138972
0.26128989 0.78526813 0.3450239 4293138972
0.25765005 0.78645802 0.34836146 4293138972
0.25552422 0.81534189 0.28428817 4293138972
0.12718226 0.66828185 0.28619272 4288256409
0.10909112 0.63935065 0.27846447 4288256409
0.084532455 0.6117034 0.26813382 4288256409
0.2560865 0.78862429 0.34303397 4293138972
0.15641159 0.69886851 0.29759029 4288256409
0.15658642 0.70320624 0.29259366 4288256409
0.12823284 0.65400141 0.28385797 4288256409
0.10568508 0.63666356 0.27624378 4288256409
0.28339329 0.78757501 0.38583106 4293138972
0.24681285 0.80628109 0.38352314 4293138972
0.24324714 0.80318815 0.37692043 4293138972
0.25912419 0.78351039 0.36465412 4293138972
0.25853175 0.78412229 0.35857037 4293138972
0.24652876 0.80972582 0.31984416 4293138972
0.24915013 0.8133412 0.31119192 4293138972
0.24647895 0.80783057 0.30973142 4293138972
0.17848527 0.71193308 0.30391431 4288256409
0.15265042 0.68594778 0.29229116 4288256409
0.14961131 0.68701696 0.29211852 4288256409
0.11656377 0.6434893 0.28002828 4288256409
0.096931152 0.62320817 0.27236041 4288256409
0.077178881 0.61712414 0.2675164 4288256409
0.24549669 0.80389363 0.38255852 4293138972
0.2478223 0.79774523 0.34677789 4293138972
0.24381746 0.81793445 0.34757251 4293138972
0.2517609 0.79746747 0.33587417 4293138972
0.25082651 0.79694724 0.32404482 4293138972
0.23245983 0.76293576 0.31712958 4288256409
0.14935 0.68345851 0.28967842 4288256409
0.077578358 0.61394364 0.26695859 4288256409
0.27163541 0.7816506 0.38100779 4293138972
0.26969704 0.78377557 0.38223922 4293138972
0.26027215 0.78270155 0.37091735 4293138972
0.26089343 0.78212476 0.36627981 4293138972
0.25940171 0.78465593 0.35211357 4293138972
0.24285439 0.83526152 0.33206546 4293138972
0.11264959 0.64456254 0.28049633 4288256409
0.25384459 0.82334173 0.38505054 4293138972
0.24717593 0.82227254 0.37466884 4293138972
0.24923375 0.79389352 0.35038784 4293138972
0.24528168 0.80868542 0.32606468 4293138972
0.24353769 0.79851359 0.36998314 4293138972
0.25313562 0.81593508 0.29573292 4293138972
0.10487863 0.63427556 0.27616692 4288256409
0.098777451 0.6266467 0.27335367 4288256409
0.29474661 0.82424068 0.3934198 4293138972
0.24795295 0.7994557 0.38148534 4293138972
0.24349631 0.80902016 0.38039666 4293138972
0.22624275 0.7760666 0.32491302 4288256409
0.25297394 0.8320899 0.2778222 4293138972
0.25997758 0.84557766 0.26121399 4293138972
0.26237726 0.78566706 0.34009758 4293138972
0.25908005 0.78694695 0.32883501 4293138972
0.25050238 0.80540055 0.31999603 4293138972
0.23506039 0.76025665 0.31670848 4288256409
0.16188908 0.70007288 0.30045208 4288256409
0.091179147 0.6160574 0.2699849 4288256409
0.087151662 0.6130507 0.2687161 4288256409
0.081910685 0.61022717 0.2672635 4288256409
0.079379685 0.61642462 0.26581663 4288256409
0.24436447 0.80612528 0.38112116 4293138972
0.24810681 0.79604018 0.34486282 4293138972
0.24262474 0.82315147 0.3405855 4293138972
0.24532737 0.80595195 0.33487284 4293138972
0.24689238 0.80626011 0.30711195 4293138972
0.10552771 0.64668179 0.27527112 4288256409
0.1005164 0.62496209 0.27311018 4288256409
0.079727389 0.61379623 0.26853409 4288256409
0.24944872 0.814852 0.38944778 4293138972
0.24269894 0.81515336 0.37910536 4293138972
0.2492962 0.79470605 0.34704044 4293138972
0.25874281 0.78808373 0.33105198 4293138972
0.25051743 0.79789406 0.32725793 4293138972
0.10218945 0.65861875 0.26547697 4288256409
0.092355825 0.61800289 0.27059746 4288256409
0.26063523 0.78064382 0.37349847 4293138972
0.22898634 0.77111298 0.31950083 4288256409
0.25813824 0.81374919 0.27644321 4293138972
0.077853955 0.618393 0.26985028 4288256409
0.26605085 0.78145301 0.3795259 4293138972
0.2629427 0.78083444 0.37617782 4293138972
0.25749719 0.78581488 0.37538332 4293138972
0.24547738 0.80146259 0.34846255 4293138972
0.25429976 0.83070779 0.27262354 4293138972
0.11870718 0.65823066 0.28089851 4288256409
0.096761405 0.62108773 0.2715421 4288256409
0.074935451 0.61171007 0.26210627 4288256409
0.26649159 0.78016639 0.37756386 4293138972
0.24103147 0.81911355 0.36065555 4293138972
0.26023534 0.78368336 0.35395804 4293138972
0.26411474 0.78425229 0.34199008 4293138972
0.25924084 0.78701794 0.34184247 4293138972
0.26813835 0.80474067 0.26352903 4293138972
0.24958225 0.83529615 0.37333095 4293138972
0.26129675 0.782848 0.35745749 4293138972
0.25999504 0.78699702 0.33845121 4293138972
0.25486499 0.78991568 0.34070587 4293138972
0.26437765 0.78576571 0.32977355 4293138972
0.26083538 0.7873562 0.33250359 4293138972
0.25254527 0.79634523 0.32526541 4293138972
0.25090221 0.81954139 0.30302751 4293138972
0.25174731 0.81378764 0.30159411 4293138972
0.25399348 0.81524879 0.29111603 4293138972
0.2576679 0.81354308 0.28173417 4293138972
0.26624134 0.80746895 0.26510251 4293138972
0.17907725 0.706267 0.29962197 4288256409
0.16142051 0.68766308 0.2955713 4288256409
0.14476949 0.66931832 0.28758779 4288256409
0.10187376 0.62985617 0.2747499 4288256409
0.090384521 0.64485031 0.26162755 4288256409
0.088987216 0.62962532 0.26882732 4288256409
0.078767672 0.60869801 0.26544449 4288256409
0.24448314 0.80793494 0.37900671 4293138972
0.25069991 0.79248744 0.37115678 4293138972
0.25556168 0.82551348 0.26359072 4293138972
0.24338116 0.80787516 0.37680843 4293138972
0.24171376 0.81339544 0.35442907 4293138972
0.24382946 0.83219105 0.31665912 4293138972
0.098407529 0.62034601 0.27195421 4288256409
0.24770707 0.79397529 0.37683299 4293138972
0.26082364 0.78261656 0.36136261 4293138972
0.24573517 0.81676686 0.31653404 4293138972
0.13696592 0.68018168 0.28643164 4288256409
0.087833457 0.62724251 0.2686339 4288256409
0.2842629 0.82633001 0.39451095 4293138972
0.24768716 0.8239249 0.31082353 4293138972
0.24958894 0.80157256 0.31440002 4293138972
0.26103726 0.82393682 0.3887428 4293138972
0.25153095 0.79229045 0.3755157 4293138972
0.24429181 0.80645734 0.37657103 4293138972
0.24226588 0.81928414 0.35783714 4293138972
0.24737395 0.79867136 0.33925799 4293138972
0.12809762 0.67008048 0.28625616 4288256409
0.11509176 0.64172685 0.27960071 4288256409
0.24279857 0.81214327 0.37587529 4293138972
0.25525081 0.81348926 0.28832242 4293138972
0.22443381 0.75038469 0.31292075 4288256409
0.097611733 0.65265828 0.26422369 4288256409
0.074408144 0.61401004 0.26138443 4288256409
0.074296176 0.61654192 0.26175708 4288256409
0.27568826 0.78260809 0.38181615 4293138972
0.24654017 0.80049092 0.37381417 4293138972
0.24320102 0.81051874 0.37404197 4293138972
0.2628766 0.78612489 0.33438689 4293138972
0.15923955 0.69054103 0.29555041 4288256409
0.11557516 0.66625673 0.28438205 4288256409
0.11735187 0.65043801 0.28175399 4288256409
0.083955817 0.60950309 0.26726714 4288256409
0.081876546 0.60847473 0.26559633 4288256409
0.077759311 0.61247432 0.26460403 4288256409
0.26519859 0.78017128 0.3735908 4293138972
0.24444334 0.80587405 0.3522771 4293138972
0.26602623 0.78469729 0.33533663 4293138972
0.2442583 0.81930804 0.33935907 4293138972
0.26730636 0.78464437 0.33153594 4293138972
0.07708253 0.60877293 0.26304764 4288256409
0.28361207 0.83145607 0.39427978 4293138972
0.28158137 0.82324469 0.39388824 4293138972
0.2884165 0.78779489 0.38518789 4293138972
0.27866659 0.78404784 0.382972 4293138972
0.27529758 0.78099239 0.38007969 4293138972
0.27436432 0.7775169 0.37540823 4293138972
0.26987833 0.78207397 0.37932953 4293138972
0.27193069 0.77811247 0.37289509 4293138972
0.26716471 0.77893758 0.37584826 4293138972
0.2659483 0.7798754 0.370655 4293138972
0.26242349 0.78115594 0.36803153 4293138972
0.26282617 0.78154814 0.36287594 4293138972
0.26403549 0.78161138 0.35692859 4293138972
0.26554704 0.78166497 0.3518652 4293138972
0.26324373 0.78332055 0.34942415 4293138972
0.26540518 0.78300601 0.34405994 4293138972
0.26743662 0.78339601 0.33754081 4293138972
0.26880682 0.78337771 0.33272108 4293138972
0.12021696 0.64678872 0.28192621 4288256409
0.113645 0.63824201 0.27823675 4288256409
0.1106526 0.63738561 0.27760798 4288256409
0.098862477 0.63800901 0.27593723 4288256409
0.099344745 0.62271827 0.27267566 4288256409
0.086475983 0.61093652 0.26814714 4288256409
0.08025825 0.60705549 0.26314202 4288256409
0.28230211 0.78550118 0.38471878 4293138972
0.28288141 0.78386402 0.38340569 4293138972
0.27980629 0.78182197 0.38122368 4293138972
0.2441989 0.82804376 0.32815289 4293138972
0.24719469 0.77472162 0.32281265 4288256409
0.25373578 0.81328714 0.29457238 4293138972
0.25238502 0.83035558 0.27630374 4293138972
0.25946832 0.81137502 0.27606919 4293138972
0.12765431 0.65206134 0.2834821 4288256409
0.122244 0.64658809 0.28160185 4288256409
0.11994884 0.64240497 0.28051984 4288256409
0.11775039 0.64185584 0.27985099 4288256409
0.10462026 0.63042039 0.27469552 4288256409
0.084211566 0.63904667 0.261181 4288256409
0.083621986 0.60792291 0.26608473 4288256409
0.27661783 0.77882999 0.37827289 4293138972
0.26159668 0.77949274 0.37140411 4293138972
0.26479673 0.78063637 0.36419386 4293138972
0.26625347 0.78075951 0.35798371 4293138972
0.26725036 0.78074998 0.35366422 4293138972
0.26690274 0.7822051 0.34608465 4293138972
0.25460956 0.79308063 0.32691747 4293138972
0.2539573 0.8120175 0.2975463 4293138972
0.25552785 0.81205851 0.29105312 4293138972
0.15249832 0.67774874 0.29231215 4288256409
0.14872023 0.67203033 0.289406 4288256409
0.12771939 0.6504038 0.28200611 4288256409
0.28718162 0.78572154 0.38443643 4293138972
0.28327602 0.78078818 0.3814337 4293138972
0.2680046 0.77921164 0.37204623 4293138972
0.26606911 0.77990407 0.36808816 4293138972
0.26048365 0.78598881 0.32602617 4288256409
0.25260958 0.82855618 0.28015897 4293138972
0.25845575 0.81105012 0.28093052 4293138972
0.26156795 0.8099696 0.27130079 4293138972
0.10998192 0.63481975 0.27680752 4288256409
0.26899999 0.77912521 0.37933683 4293138972
0.26875329 0.7810716 0.3478519 4293138972
0.25388727 0.80991441 0.30049723 4293138972
0.25677705 0.81097573 0.28692085 4293138972
0.22757564 0.74974781 0.31265408 4288256409
0.26886851 0.7786665 0.3681317 4293138972
0.26874605 0.78003448 0.35120508 4293138972
0.24646269 0.80334818 0.33189383 4293138972
0.25825098 0.83652657 0.26522726 4293138972
0.15556289 0.67902213 0.29295805 4288256409
0.24876565 0.80204862 0.31677863 4293138972
0.24558294 0.77310288 0.32281694 4288256409
0.089937687 0.61402333 0.26944089 4288256409
0.26262709 0.78592879 0.32834437 4293138972
0.26625961 0.78456068 0.32809508 4293138972
0.248482 0.77610266 0.32339486 4288256409
0.26627371 0.77962327 0.3653343 4293138972
0.14399564 0.68638164 0.28931788 4288256409
0.26464099 0.8060739 0.27014154 4293138972
0.14236601 0.66673887 0.28790194 4288256409
0.25013879 0.80476832 0.31754476 4293138972
0.25133795 0.8034122 0.31825855 4293138972
0.19815424 0.73818231 0.30453217 4288256409
0.24552333 0.81271237 0.38746795 4293138972
0.27262518 0.77940875 0.37779415 4293138972
0.26582432 0.78010619 0.36061883 4293138972
0.26740143 0.78272623 0.34062144 4293138972
0.24529286 0.80113369 0.33979958 4293138972
0.25251845 0.79454845 0.3265608 4293138972
0.24144025 0.76333702 0.31951535 4288256409
0.2551693 0.81000996 0.29358488 4293138972
0.15637381 0.67789239 0.29312593 4288256409
0.15435874 0.67701674 0.29237694 4288256409
0.14653376 0.6705054 0.28880832 4288256409
0.13813719 0.66134882 0.28661892 4288256409
0.13574001 0.66326076 0.28696105 4288256409
0.13197628 0.65527838 0.28520814 4288256409
0.11729852 0.63901448 0.27930179 4288256409
0.10797065 0.63063937 0.27555832 4288256409
0.10233844 0.62490433 0.27335665 4288256409
0.093540296 0.62916446 0.27119473 4288256409
0.091066219 0.62813365 0.27076453 4288256409
0.093346633 0.61490625 0.26998463 4288256409
0.08886873 0.62444997 0.26919761 4288256409
0.088333443 0.6116671 0.26867706 4288256409
0.28773421 0.78419793 0.38391528 4293138972
0.28255838 0.78226829 0.38248172 4293138972
0.26998898 0.77800035 0.37011597 4293138972
0.26831189 0.7838068 0.32829151 4293138972
0.25262791 0.79778498 0.33101428 4293138972
0.24882911 0.8042773 0.32711485 4293138972
0.24625155 0.83317614 0.30757624 4293138972
0.23510657 0.75699437 0.31572428 4288256409
0.26042628 0.80861074 0.2764042 4293138972
0.25725931 0.82110304 0.26858118 4293138972
0.2077634 0.73041379 0.30584973 4288256409
0.15004785 0.67308837 0.29059789 4288256409
0.1109404 0.63349181 0.2764807 4288256409
0.10578626 0.65811729 0.26011419 4288256409
0.08477053 0.60666472 0.26602367 4288256409
0.082159832 0.60599148 0.2637333 4288256409
0.29588833 0.79232037 0.38772285 4293138972
0.29200464 0.78953189 0.38635099 4293138972
0.27578539 0.77679247 0.37451878 4293138972
0.27204251 0.77609736 0.37064359 4293138972
0.26774311 0.77801943 0.36555755 4293138972
0.26794392 0.77985126 0.36162785 4293138972
0.2687003 0.77971959 0.35533971 4293138972
0.27084276 0.78204954 0.33934888 4293138972
0.25187898 0.79687285 0.32807931 4293138972
0.25075427 0.77529246 0.32298985 4288256409
0.24811776 0.80655241 0.30891618 4293138972
0.25037631 0.82546163 0.27835679 4293138972
0.24024945 0.75888091 0.31753245 4288256409
0.25942686 0.80893677 0.2814692 4293138972
0.26971078 0.80290192 0.26221439 4293138972
0.21328099 0.73618829 0.30924141 4288256409
0.18230882 0.70538867 0.29877082 4288256409
0.1575132 0.68041569 0.29330477 4288256409
0.15309536 0.67561007 0.29155749 4288256409
0.12248057 0.660649 0.2860623 4288256409
0.12402339 0.64679331 0.28245226 4288256409
0.11673268 0.63755262 0.27818084 4288256409
0.09133257 0.61256111 0.26935041 4288256409
0.07768143 0.61104757 0.26508912 4288256409
0.077224202 0.61297435 0.26642802 4288256409
0.28605428 0.78229785 0.38287273 4293138972
0.2792646 0.77984893 0.38005108 4293138972
0.2782225 0.77696216 0.37740791 4293138972
0.27091587 0.78299046 0.33375251 4293138972
0.25312692 0.79610914 0.32234803 4293138972
0.25190657 0.79982173 0.32265401 4293138972
0.24444735 0.76225972 0.31845126 4288256409
0.25689036 0.80875218 0.2894007 4293138972
0.2334767 0.75363725 0.31514746 4288256409
0.25441581 0.82811815 0.26954544 4293138972
0.25318617 0.82768655 0.26391885 4293138972
0.21058252 0.73280048 0.30770797 4288256409
0.1609816 0.68591875 0.29500669 4288256409
0.15995114 0.68496925 0.29378062 4288256409
0.15167007 0.69185227 0.29490441 4288256409
0.15793322 0.67705852 0.29293215 4288256409
0.151187 0.67181611 0.29031828 4288256409
0.13828303 0.68526745 0.28320593 4288256409
0.13000444 0.65537339 0.28479475 4288256409
0.1142387 0.64834541 0.28301695 4288256409
0.11442312 0.65202653 0.28171769 4288256409
0.10347404 0.63494438 0.27644187 4288256409
0.10410884 0.62600094 0.2740624 4288256409
0.088129297 0.60978591 0.26836634 4288256409
0.27982405 0.77776033 0.37879795 4293138972
0.27577686 0.7748732 0.37350112 4293138972
0.24479014 0.80281901 0.37731326 4293138972
0.27098364 0.77877092 0.35615349 4293138972
0.27289891 0.78228331 0.3351613 4293138972
0.26231551 0.78410798 0.32688165 4288256409
0.25901687 0.7784099 0.3206737 4288256409
0.25337645 0.78082818 0.3241367 4288256409
0.25237253 0.77092957 0.32048154 4288256409
0.24633606 0.76430327 0.31979486 4288256409
0.2502279 0.82350618 0.28412643 4293138972
0.23738028 0.75550044 0.31587431 4288256409
0.2128766 0.73417479 0.30877331 4288256409
0.15031075 0.67482805 0.29127359 4288256409
0.11840967 0.66453266 0.28356397 4288256409
0.093159869 0.61354977 0.26968282 4288256409
0.30054566 0.79388553 0.38834548 4293138972
0.28622672 0.78033477 0.38183394 4293138972
0.28245476 0.77878213 0.38028908 4293138972
0.27076411 0.7813639 0.34277996 4293138972
0.24513702 0.83246958 0.3138676 4293138972
0.24959849 0.82565624 0.29980472 4293138972
0.25478375 0.80903739 0.29759005 4293138972
0.16140258 0.69450819 0.29683298 4288256409
0.15704238 0.68180114 0.29412961 4288256409
0.14000323 0.66168892 0.28725454 4288256409
0.13850345 0.66359639 0.28742263 4288256409
0.13251391 0.66073084 0.28631657 4288256409
0.1058732 0.6296097 0.27500218 4288256409
0.079462104 0.61232328 0.26729307 4288256409
0.078908846 0.61491549 0.26859441 4288256409
0.079736508 0.60976702 0.26572201 4288256409
0.2949287 0.78810984 0.38526469 4293138972
0.2913076 0.7865988 0.38492447 4293138972
0.27114391 0.77896917 0.35910797 4293138972
0.24081226 0.81166393 0.35885012 4293138972
0.26995525 0.78328282 0.32971439 4293138972
0.23820415 0.76175034 0.31782416 4288256409
0.25989807 0.80674773 0.2821874 4293138972
0.27131459 0.80156523 0.26028487 4293138972
0.16629881 0.69073284 0.29729253 4288256409
0.16487628 0.69168973 0.29678318 4288256409
0.1605463 0.67987686 0.29240596 4288256409
0.10751162 0.65928471 0.26640287 4288256409
0.10606281 0.65505481 0.26212975 4288256409
0.094340518 0.6190052 0.27131379 4288256409
0.085199721 0.60853881 0.26723659 4288256409
0.080564737 0.62207592 0.26375312 4288256409
0.076264165 0.61102647 0.26276875 4288256409
0.074159548 0.6151039 0.26436377 4288256409
0.076472268 0.60847139 0.26024377 4288256409
0.24229069 0.81083477 0.34869385 4293138972
0.25067139 0.8022722 0.32538599 4293138972
0.26510698 0.8071366 0.2618461 4293138972
0.22302206 0.74336684 0.31175271 4288256409
0.21944071 0.74185473 0.31106034 4288256409
0.15435091 0.67371446 0.29147661 4288256409
0.15254132 0.67343974 0.2910431 4288256409
0.14611889 0.66299498 0.28730774 4288256409
0.1418135 0.66150218 0.2877318 4288256409
0.10602726 0.64362329 0.27679247 4288256409
0.099108338 0.61877376 0.27205387 4288256409
0.074642792 0.62981182 0.26271594 4288256409
0.25228354 0.79510975 0.32993376 4293138972
0.24954477 0.8103683 0.31604049 4293138972
0.22700192 0.7453016 0.31278172 4288256409
0.22212674 0.73975849 0.30987537 4288256409
0.14975482 0.66792387 0.28921267 4288256409
0.14435476 0.66098988 0.28860444 4288256409
0.14276645 0.66019791 0.28757337 4288256409
0.13123722 0.6568104 0.28559348 4288256409
0.1076638 0.62817937 0.27475941 4288256409
0.080813974 0.6157335 0.26831847 4288256409
0.077302374 0.61858428 0.26248175 4288256409
0.075577371 0.61474568 0.26251483 4288256409
0.29617169 0.79018557 0.38649035 4293138972
0.24408798 0.79680246 0.35754493 4293138972
0.24690107 0.79735965 0.35029313 4293138972
0.26181218 0.80464941 0.28125408 4293138972
0.15471512 0.6950739 0.29443434 4288256409
0.14955156 0.67057383 0.28977993 4288256409
0.13031057 0.66586971 0.28656596 4288256409
0.12070394 0.66079968 0.28303936 4288256409
0.12312717 0.64781392 0.28247726 4288256409
0.10573557 0.64588463 0.27748132 4288256409
0.09448877 0.61248964 0.26933894 4288256409
0.087208614 0.60843092 0.26755688 4288256409
0.085903138 0.60632116 0.26679152 4288256409
0.083284073 0.60569036 0.2650325 4288256409
0.078109443 0.61001128 0.26525596 4288256409
0.29911005 0.7910133 0.38762146 4293138972
0.28604361 0.77847159 0.38070941 4293138972
0.24879774 0.76703513 0.32067269 4288256409
0.26398012 0.80437535 0.27560306 4293138972
0.15649804 0.67585981 0.29187354 4288256409
0.13882858 0.68700689 0.28365514 4288256409
0.11113573 0.65368974 0.27794811 4288256409
0.10191814 0.63885075 0.27510729 4288256409
0.10120872 0.65033764 0.26610303 4288256409
0.089950494 0.60865992 0.26807901 4288256409
0.079369441 0.62241405 0.26925784 4288256409
0.25084725 0.82479519 0.29907146 4293138972
0.1533085 0.67185009 0.29069042 4288256409
0.093325041 0.61664295 0.2704733 4288256409
0.090221167 0.61134028 0.26871619 4288256409
0.083586328 0.61743212 0.27071345 4288256409
0.07720346 0.60641259 0.26019987 4288256409
0.29871857 0.78926855 0.38630641 4293138972
0.25663555 0.81669313 0.27412361 4293138972
0.2092182 0.73123497 0.30704674 4288256409
0.20965149 0.72931385 0.3060427 4288256409
0.18741819 0.70639175 0.30021015 4288256409
0.16623148 0.68442899 0.29524478 4288256409
0.16290653 0.68829298 0.29652199 4288256409
0.16418727 0.68193567 0.29476237 4288256409
0.16024272 0.682266 0.29409924 4288256409
0.1410327 0.68836826 0.29151317 4288256409
0.13322023 0.66211975 0.28729269 4288256409
0.12467356 0.64855564 0.28306949 4288256409
0.12332091 0.64214808 0.28139734 4288256409
0.104781 0.65012968 0.26628551 4288256409
0.079471663 0.62154984 0.26808834 4288256409
0.24171765 0.81375372 0.37174609 4293138972
0.27087891 0.77910322 0.34918872 4293138972
0.13417508 0.65694386 0.28591695 4288256409
0.289776 0.7831254 0.38348636 4293138972
0.275987 0.77697104 0.37655115 4293138972
0.24247049 0.82221216 0.33098537 4293138972
0.26732776 0.78243405 0.32523921 4293138972
0.13598908 0.68093574 0.29037872 4288256409
0.11002058 0.64003873 0.27899706 4288256409
0.10564124 0.63981658 0.27644551 4288256409
0.27642116 0.81997359 0.39401302 4293138972
0.28162545 0.77663761 0.37858632 4293138972
0.2410616 0.82600027 0.35830241 4293138972
0.24146761 0.81638926 0.35883719 4293138972
0.25300047 0.78864288 0.3253215 4288256409
0.26753384 0.80149603 0.27010661 4293138972
0.16504474 0.68860006 0.29589447 4288256409
0.14759195 0.69073629 0.29101893 4288256409
0.13024993 0.67471045 0.28785965 4288256409
0.083400659 0.62042552 0.27038532 4288256409
0.29238656 0.78487313 0.38453889 4293138972
0.24080572 0.82282573 0.37230662 4293138972
0.2425652 0.82387441 0.34892118 4293138972
0.24906504 0.80519855 0.32318619 4293138972
0.26070905 0.8062042 0.27845061 4293138972
0.2654238 0.80398941 0.26970607 4293138972
0.17537524 0.69508171 0.29770947 4288256409
0.14004797 0.66046095 0.28674281 4288256409
0.12481262 0.67271191 0.28687686 4288256409
0.10650849 0.6351071 0.27639008 4288256409
0.079193167 0.60514665 0.26212478 4288256409
0.0820994 0.60445428 0.26310283 4288256409
0.075160623 0.61578196 0.26102903 4288256409
0.29667211 0.78657019 0.38519266 4293138972
0.29246524 0.78267717 0.38387814 4293138972
0.24722268 0.81143337 0.38514486 4293138972
0.24117276 0.81999725 0.35042417 4293138972
0.27146891 0.77966774 0.34504899 4293138972
0.27350688 0.78072476 0.33704519 4293138972
0.24854988 0.79617059 0.32018185 4288256409
0.13987023 0.65775532 0.286616 4288256409
0.13752788 0.65641809 0.28614575 4288256409
0.1067766 0.6253897 0.27396408 4288256409
0.24480961 0.8302983 0.31644204 4293138972
0.24397165 0.81770653 0.32005498 4293138972
0.10568529 0.65409553 0.26456013 4288256409
0.089622051 0.63781255 0.26874045 4288256409
0.092249244 0.62771338 0.27097762 4288256409
0.088139169 0.60643351 0.26730198 4288256409
0.080531724 0.62031275 0.26464602 4288256409
0.28430358 0.77722907 0.37927598 4293138972
0.2715221 0.78096145 0.33148241 4293138972
0.24572623 0.83111972 0.3191781 4293138972
0.24526666 0.82275474 0.32269195 4293138972
0.22460155 0.74221623 0.31181273 4288256409
0.21327971 0.73196411 0.30740607 4288256409
0.14201073 0.69177854 0.29246911 4288256409
0.094229952 0.63303685 0.27094197 4288256409
0.088496886 0.63181752 0.2675193 4288256409
0.09327241 0.60815132 0.26627281 4288256409
0.085293621 0.62729269 0.26589173 4288256409
0.08887618 0.62372935 0.27094993 4288256409
0.074032359 0.61091065 0.26089662 4288256409
0.25002226 0.80170035 0.38675249 4293138972
0.27039364 0.77732503 0.36279204 4293138972
0.27326465 0.77659619 0.35673296 4293138972
0.27200094 0.77799118 0.35194787 4293138972
0.24983515 0.81167388 0.31005079 4293138972
0.25445193 0.80647689 0.29663494 4293138972
0.24856539 0.82215875 0.29198089 4293138972
0.25122741 0.82190114 0.28440684 4293138972
0.20621026 0.7276094 0.30532861 4288256409
0.19952348 0.72005475 0.30310139 4288256409
0.077094764 0.60786021 0.26292449 4288256409
0.24790281 0.7923283 0.35872701 4293138972
0.25238761 0.79227257 0.32553104 4288256409
0.13474 0.66046548 0.28654718 4288256409
0.085740767 0.61974949 0.2699759 4288256409
0.2767818 0.83171123 0.39406529 4293138972
0.27093518 0.77684277 0.36541179 4293138972
0.2737616 0.77780664 0.3589533 4293138972
0.24682041 0.79853749 0.3688975 4293138972
0.24506107 0.79419279 0.36643946 4293138972
0.24513543 0.79677391 0.35985693 4293138972
0.25317666 0.80878186 0.3039892 4293138972
0.20555826 0.72461939 0.30418229 4288256409
0.14298524 0.68735147 0.27605507 4288256409
0.1168021 0.63609213 0.27846512 4288256409
0.083544873 0.61946172 0.26730353 4288256409
0.2451565 0.80103451 0.33766598 4293138972
0.12010448 0.65115827 0.28370395 4288256409
0.083815686 0.62117243 0.27181929 4288256409
0.27368346 0.7769773 0.37259629 4293138972
0.27302143 0.77596086 0.36671051 4293138972
0.25737482 0.80785394 0.28618884 4293138972
0.26593944 0.8022778 0.27292368 4293138972
0.20717934 0.72640294 0.30586198 4288256409
0.13995512 0.65944654 0.28715318 4288256409
0.11384495 0.65747201 0.2782895 4288256409
0.089047246 0.61801213 0.27046093 4288256409
0.080039658 0.61896098 0.26970831 4288256409
0.27130628 0.77839869 0.37653878 4293138972
0.27245697 0.77839583 0.34705681 4293138972
0.24406181 0.80059445 0.3539739 4293138972
0.27367181 0.78025544 0.3396655 4293138972
0.24979916 0.79232049 0.34711179 4293138972
0.2698181 0.78213787 0.32646227 4293138972
0.25082633 0.76826662 0.32172227 4288256409
0.168559 0.70129615 0.30156174 4288256409
0.16245058 0.68034381 0.29427835 4288256409
0.10521051 0.65295893 0.27228948 4288256409
0.09543556 0.63423586 0.27186683 4288256409
0.083143629 0.61452401 0.26956928 4288256409
0.24979593 0.80964965 0.31509674 4293138972
0.1270794 0.66138375 0.28712687 4288256409
0.27326319 0.77587789 0.36281615 4293138972
0.24427463 0.82577991 0.33236393 4293138972
0.24657664 0.82457137 0.30674294 4293138972
0.16740017 0.68290055 0.29541039 4288256409
0.14291838 0.68895298 0.29218033 4288256409
0.14446399 0.67690885 0.29278684 4288256409
0.12693262 0.64820683 0.28326595 4288256409
0.24059559 0.80800623 0.37876311 4293138972
0.24195218 0.80995011 0.35931817 4293138972
0.24141027 0.82169151 0.35235518 4293138972
0.13175076 0.67558622 0.28799024 4288256409
0.123193 0.64052069 0.28101513 4288256409
0.077221282 0.60692531 0.26171622 4288256409
0.27778983 0.77559227 0.37595466 4293138972
0.24587628 0.79340309 0.36472785 4293138972
0.24999201 0.79530925 0.31930858 4288256409
0.16321488 0.68505752 0.29579434 4288256409
0.1289676 0.6483252 0.28371483 4288256409
0.12822251 0.64623863 0.28261849 4288256409
0.11187986 0.65624714 0.27059227 4288256409
0.085753389 0.63430107 0.26333994 4288256409
0.080614664 0.61218983 0.2680881 4288256409
0.27051181 0.80752158 0.38996735 4293138972
0.27438182 0.77864528 0.34229541 4293138972
0.24538305 0.80518878 0.33120349 4293138972
0.25441113 0.79010081 0.32750252 4288256409
0.25687754 0.80659395 0.29134181 4293138972
0.22190072 0.74059981 0.31115699 4288256409
0.22020024 0.73723018 0.30988818 4288256409
0.09867844 0.63851118 0.27311867 4288256409
0.24240161 0.82013172 0.36593512 4293138972
0.13531835 0.67260307 0.28985205 4288256409
0.13052024 0.64980221 0.28416467 4288256409
0.12997653 0.65199 0.2843906 4288256409
0.08627411 0.63578248 0.26499501 4288256409
0.25734842 0.81171137 0.39027882 4293138972
0.24593139 0.7943446 0.36176106 4293138972
0.21721357 0.73584962 0.30904651 4288256409
0.17088179 0.69240391 0.29647526 4288256409
0.13397895 0.65037394 0.28478935 4288256409
0.13364062 0.64740103 0.28345501 4288256409
0.12653908 0.64456981 0.28248081 4288256409
0.10062827 0.63761932 0.27256423 4288256409
0.08822649 0.635584 0.26399374 4288256409
0.24159403 0.80293959 0.36796886 4293138972
0.24826069 0.79379767 0.36519438 4293138972
0.27469304 0.77772409 0.34470302 4293138972
0.13391244 0.64889103 0.28415582 4288256409
0.1292313 0.64655042 0.28337047 4288256409
0.10648397 0.64203852 0.27651569 4288256409
0.095081829 0.61416632 0.270143 4288256409
0.27318543 0.8253876 0.39489433 4293138972
0.25425169 0.78739792 0.32658863 4288256409
0.17025888 0.71511185 0.30048496 4288256409
0.1664761 0.69254917 0.29791388 4288256409
0.13630481 0.65263027 0.28511012 4288256409
0.12969406 0.6448127 0.28241205 4288256409
0.084745988 0.60488731 0.26567492 4288256409
0.27480215 0.77651125 0.35141817 4293138972
0.27487946 0.77695864 0.34776562 4293138972
0.26326707 0.80290544 0.27919176 4293138972
0.13099201 0.64789414 0.28396782 4288256409
0.12769853 0.64267886 0.28143439 4288256409
0.089484215 0.62841773 0.26812953 4288256409
0.081043586 0.62219924 0.27076575 4288256409
0.25008252 0.78823274 0.36699563 4293138972
0.2458865 0.82686812 0.3514784 4293138972
0.24095458 0.81749809 0.3497712 4293138972
0.24243787 0.80863386 0.34975219 4293138972
0.27434492 0.78012115 0.33276421 4293138972
0.14467238 0.66367787 0.28954428 4288256409
0.12524009 0.66648501 0.28372017 4288256409
0.12110353 0.66490299 0.28109333 4288256409
0.12582828 0.64137197 0.28091502 4288256409
0.12312388 0.63906395 0.28078008 4288256409
0.1160657 0.64805216 0.28147709 4288256409
0.10832568 0.62451917 0.27389294 4288256409
0.084913358 0.62354052 0.26776049 4288256409
0.080739155 0.60417414 0.26116577 4288256409
0.27385402 0.82110924 0.3951726 4293138972
0.27708167 0.81800342 0.39439437 4293138972
0.25801045 0.78468961 0.35046995 4293138972
0.24827944 0.80429935 0.3118549 4293138972
0.26526967 0.80098045 0.27709103 4293138972
0.15903324 0.68058133 0.29451302 4288256409
0.14105162 0.67510504 0.28963688 4288256409
0.099521846 0.65417528 0.26052916 4288256409
0.095104352 0.64255595 0.26447132 4288256409
0.086551234 0.60467595 0.26638639 4288256409
0.27569002 0.77930218 0.33445653 4293138972
0.25409871 0.82043213 0.27991617 4293138972
0.15908849 0.67912996 0.29346564 4288256409
0.11585885 0.65781194 0.27969292 4288256409
0.10073976 0.64063388 0.27499416 4288256409
0.24399257 0.81121445 0.38242906 4293138972
0.14319113 0.68384564 0.2935954 4288256409
0.12096678 0.65725958 0.28215259 4288256409
0.24298395 0.81677884 0.33265013 4293138972
0.2727305 0.78233945 0.32719946 4293138972
0.25109407 0.8096959 0.30905002 4293138972
0.21206796 0.72878134 0.30672112 4288256409
0.19927962 0.71846056 0.30401799 4288256409
0.14636703 0.69373959 0.29130012 4288256409
0.1406773 0.66413921 0.28774491 4288256409
0.14167303 0.65902478 0.28735778 4288256409
0.13367459 0.65491903 0.28565943 4288256409
0.28389636 0.82149398 0.39670533 4293138972
0.18980907 0.71753049 0.30310577 4288256409
0.11334397 0.65731913 0.28408217 4288256409
0.097443931 0.61847442 0.27165213 4288256409
0.27627075 0.81477398 0.39305428 4293138972
0.28954759 0.79117966 0.3883599 4293138972
0.24277261 0.80597323 0.35034469 4293138972
0.1436702 0.65903288 0.28831232 4288256409
0.12865795 0.67261624 0.28655532 4288256409
0.13845028 0.65470475 0.28651196 4288256409
0.10424636 0.62126917 0.27312252 4288256409
0.098390132 0.61709493 0.27175882 4288256409
0.24323717 0.82310677 0.37311119 4293138972
