# .PCD v0.7 - Point Cloud Data file format
VERSION 0.7
FIELDS x y z rgba
SIZE 4 4 4 4
TYPE F F F U
COUNT 1 1 1 1
WIDTH 1094
HEIGHT 1
VIEWPOINT 0 0 0 1 0 0 0
POINTS 1094
DATA ascii
0.23520301 0.75823635 0.30224121 4288256409
0.23284046 0.75441784 0.2962597 4288256409
0.23780303 0.76075411 0.30216828 4288256409
0.23937395 0.76260853 0.29923141 4288256409
0.29818705 0.81160653 0.35830945 4293138972
0.30659732 0.82613432 0.35936752 4293138972
0.23787791 0.75978386 0.29759452 4288256409
0.13618791 0.63972563 0.27421802 4288256409
0.26291376 0.80069768 0.32330173 4288256409
0.15911666 0.66552776 0.27618307 4288256409
0.2492964 0.7715953 0.29840818 4288256409
0.20221519 0.7193346 0.28771192 4288256409
0.30676889 0.82072717 0.28136227 4293138972
0.31091729 0.82384777 0.27651653 4293138972
0.13207151 0.6359331 0.27223974 4288256409
0.13722025 0.64128625 0.27218235 4288256409
0.20716484 0.72481942 0.29136693 4288256409
0.3059575 0.81937718 0.27710199 4293138972
0.31304339 0.82478249 0.26475927 4293138972
0.2933608 0.83946961 0.36998573 4293138972
0.29568812 0.83261591 0.36562544 4293138972
0.20136079 0.71839505 0.28915244 4288256409
0.31299314 0.82581812 0.26163167 4293138972
0.11894086 0.62071353 0.27034262 4288256409
0.25764704 0.77945411 0.29890156 4288256409
0.30691403 0.82340842 0.35751596 4293138972
0.085509434 0.57950813 0.27010819 4288256409
0.29461032 0.83784884 0.36864397 4293138972
0.31496632 0.82635683 0.26574519 4293138972
0.30041024 0.82727259 0.36535376 4293138972
0.1166906 0.62067646 0.2708413 4288256409
0.31169909 0.82442242 0.26593506 4293138972
0.14282508 0.64788997 0.27576202 4288256409
0.22023752 0.73919511 0.29208013 4288256409
0.27436548 0.79936182 0.31197703 4288256409
0.16619876 0.67646956 0.28049377 4288256409
0.16400045 0.67376781 0.28040689 4288256409
0.30337703 0.81701416 0.28434882 4293138972
0.17805274 0.69211537 0.28343144 4288256409
0.28429359 0.81011701 0.31747064 4293138972
0.15291506 0.65981263 0.27573314 4288256409
0.21920761 0.75172067 0.31388405 4288256409
0.089294769 0.59161681 0.26644424 4288256409
0.089673407 0.59168839 0.27010435 4288256409
0.092389084 0.59484833 0.26503846 4288256409
0.27837229 0.80867052 0.32100087 4288256409
0.2760742 0.8098833 0.3235468 4288256409
0.28219128 0.80686671 0.3158336 4288256409
0.3154574 0.82737392 0.26716578 4293138972
0.091007754 0.59426463 0.26867977 4288256409
0.092369743 0.59651017 0.26557094 4288256409
0.13369644 0.63860559 0.27280396 4288256409
0.2261422 0.75125891 0.30519378 4288256409
0.30276212 0.82396114 0.36464024 4293138972
0.26477444 0.80137968 0.32188061 4288256409
0.25797504 0.79143101 0.31841868 4288256409
0.27000645 0.80334491 0.32171261 4288256409
0.2113916 0.73039079 0.29508993 4288256409
0.27354863 0.80159307 0.31671274 4288256409
0.25654382 0.77564573 0.29586515 4288256409
0.31006214 0.82134348 0.27467725 4293138972
0.2784287 0.81068486 0.32200351 4293138972
0.30416021 0.82827246 0.3634322 4293138972
0.13029262 0.63597494 0.27393034 4288256409
0.1678462 0.67802924 0.27937102 4288256409
0.2541554 0.77617991 0.29808083 4288256409
0.15076844 0.65932667 0.27816442 4288256409
0.2816847 0.80216801 0.30095589 4288256409
0.21228632 0.74187744 0.30931872 4288256409
0.2163576 0.74802631 0.31090143 4288256409
0.27700809 0.80148661 0.31208441 4288256409
0.29569334 0.80840737 0.34469569 4293138972
0.25529042 0.77772731 0.30197346 4288256409
0.21176776 0.73927569 0.3069742 4288256409
0.2763015 0.80826712 0.32232392 4288256409
0.21440955 0.73982108 0.30377209 4288256409
0.28137466 0.80888706 0.31897187 4293138972
0.31605494 0.82693768 0.26214638 4293138972
0.28451183 0.80620444 0.30959836 4288256409
0.28842798 0.80857527 0.30292302 4293138972
0.30426443 0.82457787 0.36332089 4293138972
0.31354591 0.83355093 0.29433304 4293138972
0.3141422 0.83274847 0.29124677 4293138972
0.12627032 0.63270724 0.27293766 4288256409
0.10794798 0.61078572 0.26955545 4288256409
0.26933312 0.79268163 0.30584684 4288256409
0.3116914 0.82472658 0.26064587 4293138972
0.2873542 0.80658638 0.30103487 4288256409
0.22788499 0.75453877 0.30559584 4288256409
0.28005767 0.80757183 0.31825012 4288256409
0.28560019 0.8048116 0.29988575 4288256409
0.14881755 0.65523177 0.27604049 4288256409
0.27648112 0.7956633 0.29993507 4288256409
0.2825067 0.80760634 0.31721526 4293138972
0.28421262 0.80728269 0.31503564 4293138972
0.15770009 0.6670087 0.28134879 4288256409
0.30489472 0.82283032 0.36148858 4293138972
0.29885027 0.81177026 0.34015149 4293138972
0.21594732 0.74260223 0.30616146 4288256409
0.20946987 0.72565287 0.28774685 4288256409
0.31505224 0.82566136 0.26417968 4293138972
0.31401631 0.82642907 0.26113585 4293138972
0.31392837 0.82577711 0.30786166 4293138972
0.31471112 0.82690239 0.27489415 4293138972
0.27882239 0.79665929 0.29924399 4288256409
0.28353798 0.80285609 0.29917324 4288256409
0.25260952 0.77122968 0.2955882 4288256409
0.12866369 0.63467902 0.27435085 4288256409
0.27941564 0.80904055 0.31963947 4293138972
0.23406139 0.75218004 0.29178658 4288256409
0.22652711 0.7566433 0.31044108 4288256409
0.2919434 0.83944243 0.36952871 4293138972
0.29678586 0.80881459 0.34181085 4293138972
0.2695953 0.7909174 0.29895893 4288256409
0.30895609 0.82088596 0.28717285 4293138972
0.31130591 0.82437134 0.26376191 4293138972
0.31582209 0.83126855 0.29848328 4293138972
0.22444227 0.74776292 0.30209383 4288256409
0.25707668 0.77739501 0.29604939 4288256409
0.31512031 0.82827568 0.27433875 4293138972
0.31244558 0.82864892 0.33261782 4293138972
0.085972622 0.58316666 0.26806116 4288256409
0.30108991 0.82384282 0.36501873 4293138972
0.28159571 0.8002609 0.29927382 4288256409
0.25393727 0.77302665 0.29658428 4288256409
0.30496204 0.81726044 0.3030203 4293138972
0.31080374 0.82678586 0.34518114 4293138972
0.22891036 0.74877322 0.29317084 4288256409
0.29725826 0.81024557 0.35192761 4293138972
0.23661585 0.75414824 0.29150072 4288256409
0.31488886 0.82971209 0.28723088 4293138972
0.29970181 0.81184906 0.33384278 4293138972
0.23846105 0.75847751 0.29395038 4288256409
0.24233721 0.76224965 0.29413292 4288256409
0.23889114 0.7576341 0.29159638 4288256409
0.23770539 0.7556901 0.29182959 4288256409
0.31212968 0.82425141 0.28497192 4293138972
0.21785454 0.73799443 0.29394731 4288256409
0.24148001 0.75890201 0.29294065 4288256409
0.30839875 0.82166862 0.28380841 4293138972
0.13829011 0.65644699 0.29588628 4288256409
0.30767301 0.82121503 0.32990539 4293138972
0.31644025 0.82896501 0.27298981 4293138972
0.30933663 0.8240791 0.3414216 4293138972
0.27030054 0.79894084 0.31551251 4288256409
0.21234876 0.73730916 0.3030141 4288256409
0.27119565 0.79440182 0.30664039 4288256409
0.30984032 0.8225711 0.28814375 4293138972
0.26799458 0.78759235 0.29746056 4288256409
0.30257103 0.81517071 0.30920243 4293138972
0.31511155 0.82997257 0.28144997 4293138972
0.13991718 0.65475255 0.29217514 4288256409
0.29408765 0.84045625 0.37004796 4293138972
0.30949903 0.82277173 0.28503531 4293138972
0.22793923 0.74546295 0.29011825 4288256409
0.27797484 0.79855961 0.30009165 4288256409
0.16361384 0.67133993 0.27663392 4288256409
0.23052914 0.75117475 0.29363745 4288256409
0.23109955 0.74885541 0.29095435 4288256409
0.30810174 0.81997442 0.29156169 4293138972
0.26643324 0.78543258 0.29759026 4288256409
0.27192879 0.79187584 0.29725596 4288256409
0.30454716 0.81713861 0.31489438 4293138972
0.28605351 0.80661541 0.30318493 4288256409
0.27967599 0.79825503 0.29855108 4288256409
0.31079134 0.82179207 0.26909298 4293138972
0.26928657 0.79940647 0.31714234 4288256409
0.23217095 0.74794376 0.28952608 4288256409
0.29249036 0.84152716 0.36087376 4293138972
0.31228536 0.82497227 0.30356809 4293138972
0.30553192 0.81652224 0.29793608 4293138972
0.30631822 0.8180443 0.29567468 4293138972
0.30295053 0.81594372 0.29199103 4293138972
0.3091003 0.8222037 0.29011422 4293138972
0.08598464 0.58608574 0.26807293 4288256409
0.22356577 0.74281782 0.28957489 4288256409
0.28901312 0.80707455 0.30018675 4293138972
0.30253023 0.81522644 0.29429781 4293138972
0.25746897 0.78080153 0.30151641 4288256409
0.30677465 0.81783998 0.30042517 4293138972
0.31092718 0.82466561 0.28606349 4293138972
0.31193596 0.82970542 0.26562253 4293138972
0.30617046 0.8185246 0.2883676 4293138972
0.22243074 0.74562371 0.30109376 4288256409
0.23117152 0.75682956 0.30499595 4288256409
0.30299991 0.81599569 0.3260763 4293138972
0.28981173 0.80806792 0.30128208 4293138972
0.2865293 0.80574584 0.29863739 4288256409
0.3174637 0.83028513 0.29830632 4293138972
0.28353149 0.80600536 0.31192714 4288256409
0.30642909 0.8200649 0.35357308 4293138972
0.30547935 0.82395071 0.36101222 4293138972
0.22197357 0.73857033 0.28886423 4288256409
0.30654863 0.82128274 0.34568909 4293138972
0.31280661 0.82553566 0.31081158 4293138972
0.2985706 0.81419438 0.36474901 4293138972
0.30205652 0.81785154 0.36403325 4293138972
0.30769631 0.82607001 0.34758422 4293138972
0.31677043 0.82941628 0.27599728 4293138972
0.22081499 0.73977679 0.29007095 4288256409
0.29828858 0.81292969 0.36233062 4293138972
0.29793867 0.81214613 0.36049071 4293138972
0.2998375 0.81393522 0.35963908 4293138972
0.3056463 0.81651688 0.30604708 4293138972
0.31027901 0.82343107 0.29946044 4293138972
0.31344199 0.82663536 0.30482599 4293138972
0.30074862 0.81591547 0.36036375 4293138972
0.29534879 0.80855834 0.35548297 4293138972
0.22663024 0.7460233 0.29170379 4288256409
0.29270363 0.84324336 0.35792151 4293138972
0.30350962 0.81552362 0.3048223 4293138972
0.23763758 0.76640916 0.30982313 4288256409
0.28623632 0.80741614 0.30944607 4293138972
0.31095165 0.8255834 0.31749961 4293138972
0.31567591 0.83094686 0.3011024 4293138972
0.31574172 0.8297891 0.2848503 4293138972
0.30917147 0.82434279 0.34853727 4293138972
0.26220343 0.78192192 0.29651576 4288256409
0.26834399 0.78597391 0.29613069 4288256409
0.30443928 0.8164646 0.30820853 4293138972
0.30651879 0.81980342 0.28476608 4293138972
0.31259081 0.82096183 0.27309546 4293138972
0.29800731 0.81005299 0.3534345 4293138972
0.23045059 0.74492788 0.28924584 4288256409
0.2563875 0.77331805 0.2955974 4288256409
0.30901021 0.82302296 0.33049741 4293138972
0.30998704 0.82285261 0.32706419 4293138972
0.30685908 0.81933081 0.30946684 4293138972
0.314486 0.82744223 0.30759311 4293138972
0.24897334 0.77724767 0.30971789 4288256409
0.31311384 0.82768178 0.31589258 4293138972
0.31653592 0.82989484 0.31057483 4293138972
0.12406475 0.64326924 0.29380235 4288256409
0.30531263 0.82657731 0.35963628 4293138972
0.32200155 0.8334263 0.30003899 4293138972
0.30610389 0.82099348 0.35454211 4293138972
0.31204352 0.82694191 0.33691096 4293138972
0.30841398 0.82217675 0.33363822 4293138972
0.32150644 0.82861137 0.32739627 4293138972
0.21694084 0.74249506 0.30300644 4288256409
0.26938835 0.79196197 0.30056149 4288256409
0.27908725 0.79330385 0.29804713 4288256409
0.31506521 0.82901537 0.31307819 4293138972
0.3076719 0.82011461 0.29665846 4293138972
0.31264919 0.83194566 0.36390448 4293138972
0.31070432 0.82401466 0.3205581 4293138972
0.28424764 0.80367094 0.30041891 4288256409
0.31528771 0.8311395 0.30289856 4293138972
0.30863446 0.82194763 0.27534592 4293138972
0.30307811 0.81662285 0.34129742 4293138972
0.30335149 0.81640774 0.33698145 4293138972
0.30811015 0.82134783 0.30997387 4293138972
0.30998299 0.82434863 0.32722446 4293138972
0.2875388 0.80761963 0.30253121 4293138972
0.31402907 0.82989305 0.2783514 4293138972
0.14474382 0.64946848 0.27289999 4288256409
0.29957891 0.81470758 0.3633846 4293138972
0.27908409 0.80452061 0.31358665 4288256409
0.14559793 0.66029191 0.26802263 4288256409
0.30115253 0.81480372 0.29547393 4293138972
0.31190702 0.82601416 0.3259742 4293138972
0.22118415 0.75054991 0.30746108 4288256409
0.30916095 0.81942397 0.27108842 4293138972
0.1582384 0.68409526 0.30304044 4288256409
0.28340709 0.80867237 0.31602144 4293138972
0.31373957 0.82778484 0.32757464 4293138972
0.31008223 0.8279804 0.33319652 4293138972
0.31316829 0.83031613 0.36272812 4293138972
0.30521807 0.81840789 0.28992352 4293138972
0.27571127 0.80334544 0.31328514 4288256409
0.31084093 0.82199848 0.26851603 4293138972
0.30480272 0.8202824 0.28806859 4293138972
0.30676594 0.81961966 0.2718612 4293138972
0.3098717 0.82389671 0.26623136 4293138972
0.30980241 0.82400256 0.27088493 4293138972
0.31131348 0.82508081 0.26731756 4293138972
0.30965969 0.82403213 0.26825857 4293138972
0.2849479 0.80782682 0.31051216 4293138972
0.21893264 0.74089134 0.29350141 4288256409
0.30649886 0.82072419 0.31474721 4293138972
0.29850677 0.8130613 0.30486998 4293138972
0.30939665 0.82575876 0.2950882 4293138972
0.22274739 0.74028349 0.28763655 4288256409
0.30753544 0.82242179 0.31145102 4293138972
0.29983634 0.81357449 0.2977531 4293138972
0.30858198 0.82458961 0.28677809 4293138972
0.30574387 0.81998414 0.27414045 4293138972
0.30666059 0.82092178 0.27272734 4293138972
0.30398801 0.82020169 0.33669779 4293138972
0.30672339 0.82257175 0.3267788 4293138972
0.29504284 0.80937558 0.33516669 4293138972
0.2995204 0.81480682 0.33372331 4293138972
0.25947386 0.78363323 0.30119455 4288256409
0.30693355 0.83239019 0.33010945 4293138972
0.30396536 0.81820625 0.30852288 4293138972
0.30973426 0.82351923 0.28002426 4293138972
0.31097433 0.82647222 0.26390567 4293138972
0.23500325 0.76165229 0.30494654 4288256409
0.22042647 0.74199492 0.29445025 4288256409
0.20653363 0.72305286 0.28432497 4288256409
0.20482601 0.72096837 0.28287771 4288256409
0.29376993 0.8069517 0.34063745 4293138972
0.30138052 0.81677842 0.33275342 4293138972
0.31274295 0.82870698 0.29482663 4293138972
0.31112635 0.8268677 0.26197562 4293138972
0.15904289 0.67083919 0.28062013 4288256409
0.25751641 0.78816807 0.31238368 4288256409
0.26951098 0.80108827 0.31737605 4288256409
0.2673479 0.78882092 0.29724175 4288256409
0.31094164 0.82655478 0.32676515 4293138972
0.28478193 0.80664855 0.30492476 4288256409
0.27563018 0.79987645 0.2998949 4288256409
0.30937538 0.82611108 0.32117105 4293138972
0.30636019 0.83553624 0.32545823 4293138972
0.31099841 0.82680684 0.29674643 4293138972
0.30869862 0.82354683 0.29105979 4293138972
0.29441446 0.80755717 0.35417548 4293138972
0.26540181 0.79096204 0.30725324 4288256409
0.30538288 0.82062662 0.32387394 4293138972
0.30238661 0.81599993 0.32059291 4293138972
0.27109626 0.79352087 0.29729334 4288256409
0.30338317 0.81874198 0.30252427 4293138972
0.29471669 0.80869806 0.33747193 4293138972
0.26669568 0.79265404 0.30877 4288256409
0.30841115 0.82457447 0.32795423 4293138972
0.26669908 0.79034233 0.29812554 4288256409
0.27790576 0.80266231 0.30322278 4288256409
0.27069327 0.79448557 0.29856968 4288256409
0.30573446 0.81885368 0.31831723 4293138972
0.30803934 0.8228057 0.3037926 4293138972
0.30394801 0.81864947 0.28249553 4293138972
0.21145324 0.73595244 0.3001591 4288256409
0.29444751 0.80800319 0.34842929 4293138972
0.29610518 0.81071204 0.33456618 4293138972
0.26841915 0.79377681 0.3083697 4288256409
0.30482844 0.82027376 0.32506853 4293138972
0.30264726 0.81706816 0.32231009 4293138972
0.29797903 0.84331506 0.32849199 4293138972
0.31230217 0.82833099 0.30778793 4293138972
0.29978785 0.8148132 0.29592821 4293138972
0.30435061 0.81950402 0.29083017 4293138972
0.30992976 0.83343053 0.28953785 4293138972
0.21221983 0.72944254 0.28589609 4288256409
0.30867442 0.82512051 0.33033338 4293138972
0.30476242 0.81947964 0.30408615 4293138972
0.13004878 0.6385836 0.26845905 4288256409
0.24306571 0.77326608 0.31026816 4288256409
0.29479283 0.80955195 0.3383722 4293138972
0.29562965 0.8107664 0.33610767 4293138972
0.30194768 0.8342852 0.34282428 4293138972
0.27617517 0.80625868 0.31547555 4288256409
0.27556682 0.80461228 0.31598619 4288256409
0.30249277 0.81906945 0.32945985 4293138972
0.27397302 0.7993986 0.30720338 4288256409
0.27679682 0.79915792 0.30367136 4288256409
0.27648479 0.80059898 0.30072808 4288256409
0.30815405 0.82509375 0.32024816 4293138972
0.30098149 0.81594115 0.30090308 4293138972
0.30951911 0.82436597 0.29329026 4293138972
0.30299208 0.81769359 0.28618971 4293138972
0.31117252 0.82747924 0.2687552 4293138972
0.29355288 0.80745727 0.34665841 4293138972
0.29974818 0.81343699 0.29987258 4293138972
0.30647746 0.82240003 0.2794663 4293138972
0.13215232 0.64101219 0.27670279 4288256409
0.20736985 0.72920805 0.29683819 4288256409
0.2959061 0.80974245 0.35129756 4293138972
0.30333328 0.81912881 0.35450247 4293138972
0.30606753 0.82211131 0.34115997 4293138972
0.30728921 0.82370073 0.3357698 4293138972
0.30175027 0.8159889 0.29640481 4293138972
0.30713576 0.82180911 0.26816294 4293138972
0.24475117 0.7664389 0.29320517 4288256409
0.28127605 0.80624622 0.31217214 4288256409
0.31011438 0.8263731 0.31778634 4293138972
0.14692405 0.66706914 0.29509771 4288256409
0.30095974 0.81582326 0.31231362 4293138972
0.3121711 0.83273596 0.2991412 4293138972
0.29162189 0.84082073 0.36793685 4293138972
0.3080605 0.82635832 0.33763802 4293138972
0.25896275 0.78412449 0.30279303 4288256409
0.30326322 0.81786102 0.32982808 4293138972
0.26634318 0.79101777 0.29989275 4288256409
0.30493075 0.82170266 0.32649583 4293138972
0.30756214 0.82435453 0.32223669 4293138972
0.3013804 0.81740111 0.31807262 4293138972
0.30496565 0.82093227 0.28490663 4293138972
0.30345333 0.81908035 0.2795347 4293138972
0.30259335 0.81753087 0.27990586 4293138972
0.13181984 0.63977772 0.27398407 4288256409
0.20851445 0.73414683 0.3011066 4288256409
0.26982152 0.79516286 0.30821586 4288256409
0.27452552 0.79931265 0.30432793 4288256409
0.28144726 0.80505252 0.30022219 4288256409
0.30804491 0.82363522 0.27551854 4293138972
0.12692533 0.6368407 0.27700213 4288256409
0.21691774 0.74559045 0.30439231 4288256409
0.29422224 0.80775237 0.35133034 4293138972
0.21791629 0.74035466 0.29744703 4288256409
0.26058719 0.78599453 0.30243245 4288256409
0.2619614 0.78732795 0.29968888 4288256409
0.30005583 0.8145985 0.30059415 4293138972
0.30836526 0.82305974 0.26050115 4293138972
0.22071621 0.74934405 0.30488849 4288256409
0.21306016 0.73104405 0.28593153 4288256409
0.24195017 0.76525652 0.29443634 4288256409
0.26172593 0.78647298 0.30377305 4288256409
0.30038393 0.8157894 0.32113916 4293138972
0.30316395 0.81849295 0.29499599 4293138972
0.31228194 0.83076727 0.28775361 4293138972
0.08659371 0.60913342 0.28776589 4288256409
0.14524896 0.66283911 0.29152796 4288256409
0.21287294 0.73693275 0.2996031 4288256409
0.24764156 0.77215028 0.29920417 4288256409
0.24007548 0.7638818 0.29343215 4288256409
0.26731247 0.79381174 0.30911922 4288256409
0.25424376 0.77910858 0.30164537 4288256409
0.30453241 0.82159692 0.33313683 4293138972
0.30167779 0.83700162 0.3389973 4293138972
0.29849643 0.81309414 0.32035607 4293138972
0.27080536 0.79569113 0.30039021 4288256409
0.3059777 0.82229364 0.3232359 4293138972
0.27957162 0.80446172 0.30191025 4288256409
0.30698973 0.82360005 0.31191671 4293138972
0.30530006 0.82098144 0.27573025 4293138972
0.20463103 0.72614849 0.29696187 4288256409
0.20721568 0.7271328 0.28802285 4288256409
0.24151158 0.76663768 0.30094746 4288256409
0.26392755 0.7944051 0.3132368 4288256409
0.26278183 0.78990459 0.30968556 4288256409
0.26134899 0.78811276 0.30859157 4288256409
0.25721765 0.78313386 0.304726 4288256409
0.30134603 0.81747669 0.33060661 4293138972
0.26102942 0.78592497 0.30019516 4288256409
0.26856798 0.79339778 0.30055207 4288256409
0.27845815 0.80366284 0.30462533 4288256409
0.3054623 0.82176948 0.32096919 4293138972
0.30527955 0.82104927 0.31530017 4293138972
0.30138406 0.81634349 0.29882652 4293138972
0.29276103 0.806512 0.35490882 4293138972
0.29876494 0.81470251 0.35748613 4293138972
0.30234408 0.81732851 0.35342252 4293138972
0.30283669 0.81908768 0.34089056 4293138972
0.24622661 0.77084953 0.30127656 4288256409
0.23933798 0.76316851 0.29447329 4288256409
0.30695847 0.82523376 0.34240606 4293138972
0.27354488 0.79956436 0.30902898 4288256409
0.30429655 0.82063514 0.32784083 4293138972
0.26954681 0.79466283 0.301783 4288256409
0.30234262 0.81749254 0.32377335 4293138972
0.30583477 0.81971544 0.31100506 4293138972
0.30948308 0.82600725 0.2973564 4293138972
0.30654579 0.82241744 0.29168853 4293138972
0.30154938 0.81634486 0.28650731 4293138972
0.30962417 0.82563907 0.2909745 4293138972
0.20018743 0.72508377 0.29936248 4288256409
0.29873732 0.81373686 0.35499564 4293138972
0.30032343 0.83237916 0.34953856 4293138972
0.27203658 0.80362171 0.31616238 4288256409
0.25662965 0.78230399 0.30600911 4288256409
0.25142556 0.77626812 0.30343968 4288256409
0.30382949 0.8193627 0.32794091 4293138972
0.31033769 0.82768464 0.30762655 4293138972
0.30760348 0.82362741 0.30632222 4293138972
0.31096008 0.82735324 0.28938183 4293138972
0.30705309 0.82132173 0.27064103 4293138972
0.25438219 0.78316504 0.30970716 4288256409
0.2317562 0.75487208 0.29324278 4288256409
0.24152613 0.7663877 0.29684854 4288256409
0.23248096 0.75408119 0.29040423 4288256409
0.30501047 0.82242125 0.33789462 4293138972
0.27274287 0.80052263 0.31203938 4288256409
0.28022173 0.80544353 0.3054556 4288256409
0.30580324 0.83872497 0.30531186 4293138972
0.30135575 0.81519789 0.29034126 4293138972
0.30253875 0.817779 0.2875329 4293138972
0.30956316 0.82712001 0.27997717 4293138972
0.23749545 0.76456004 0.30517641 4288256409
0.23640282 0.76080841 0.29787731 4288256409
0.24455489 0.76880962 0.30123797 4288256409
0.24024703 0.76487023 0.2976501 4288256409
0.26800346 0.79653561 0.31180817 4288256409
0.25206289 0.77647263 0.29868117 4288256409
0.30258426 0.81894392 0.33318287 4293138972
0.2540389 0.77884001 0.29743132 4288256409
0.27130416 0.7957958 0.30658656 4288256409
0.25897303 0.78201699 0.29771888 4288256409
0.30443868 0.81988776 0.31589678 4293138972
0.30092958 0.81476766 0.30353558 4293138972
0.30863485 0.82519239 0.30320501 4293138972
0.30629846 0.822097 0.29892457 4293138972
0.30164099 0.81691056 0.29410282 4293138972
0.29952979 0.84642667 0.30832252 4293138972
0.29881096 0.84411937 0.28903008 4293138972
0.29252115 0.83853012 0.36763272 4293138972
0.25246838 0.78205031 0.31012294 4288256409
0.23914756 0.76403546 0.30051017 4288256409
0.27658018 0.80770272 0.31672305 4288256409
0.27031323 0.80030537 0.31392446 4288256409
0.2666952 0.79438156 0.31099752 4288256409
0.30735332 0.82527637 0.33370012 4293138972
0.30087104 0.81665677 0.32606193 4293138972
0.30043414 0.81555688 0.32304204 4293138972
0.27844477 0.80412656 0.30653417 4288256409
0.30880672 0.82559162 0.31167862 4293138972
0.30058202 0.81411117 0.29211381 4293138972
0.30346861 0.81940889 0.28387344 4293138972
0.30594534 0.8219282 0.27609524 4293138972
0.31021079 0.82910913 0.27057764 4293138972
0.29445773 0.80919564 0.34715661 4293138972
0.29670951 0.8122316 0.34281698 4293138972
0.24011657 0.76528537 0.30217659 4288256409
0.23649706 0.76127601 0.29948494 4288256409
0.29551545 0.81096238 0.33890396 4293138972
0.25787476 0.78932261 0.3136968 4288256409
0.25532576 0.78449196 0.31109968 4288256409
0.26651531 0.79522085 0.31158498 4288256409
0.25552577 0.78107983 0.30492511 4288256409
0.26978737 0.79765278 0.31086805 4288256409
0.2718257 0.79743576 0.30642354 4288256409
0.27104861 0.79582387 0.303334 4288256409
0.27318874 0.79830861 0.30159521 4288256409
0.27653679 0.80041921 0.29797989 4288256409
0.30582288 0.82098824 0.31120643 4293138972
0.19912392 0.72240955 0.29834336 4288256409
0.2068882 0.73166448 0.30012074 4288256409
0.20904353 0.73140603 0.29669434 4288256409
0.29770172 0.83523494 0.35443801 4293138972
0.30538169 0.82152683 0.3490591 4293138972
0.25987068 0.79087806 0.31278825 4288256409
0.26449561 0.79716438 0.31564426 4288256409
0.24851403 0.77329123 0.30112714 4288256409
0.30251098 0.81870067 0.33809176 4293138972
0.30181071 0.81734037 0.32705584 4293138972
0.2792508 0.80541688 0.30917996 4288256409
0.27940759 0.80553108 0.30765715 4288256409
0.27145234 0.79657924 0.30119747 4288256409
0.30526426 0.82070899 0.31762284 4293138972
0.30486405 0.82002902 0.3053748 4293138972
0.31018546 0.82623929 0.30630752 4293138972
0.30795178 0.82497942 0.28891614 4293138972
0.20360887 0.73105526 0.30212668 4288256409
0.20517652 0.72615004 0.29254857 4288256409
0.29458317 0.80897599 0.35176569 4293138972
0.29479501 0.81035614 0.34386137 4293138972
0.25072509 0.78116322 0.31133488 4288256409
0.29917657 0.81495029 0.34481892 4293138972
0.26095471 0.79233319 0.31330058 4288256409
0.25892588 0.78746969 0.31018966 4288256409
0.23746486 0.76036131 0.29364738 4288256409
0.2637893 0.79168171 0.31028098 4288256409
0.30488369 0.82119858 0.2903918 4293138972
0.3072376 0.82267594 0.27598631 4293138972
0.11276905 0.62227017 0.27209327 4288256409
0.10795144 0.61633205 0.26923674 4288256409
0.29725373 0.83356315 0.36066326 4293138972
0.24413551 0.77601147 0.3113547 4288256409
0.23133223 0.75571787 0.29903257 4288256409
0.22614476 0.74892265 0.29555702 4288256409
0.21363938 0.73379421 0.28755841 4288256409
0.29354638 0.8084802 0.34114471 4293138972
0.24062954 0.76650536 0.30381212 4288256409
0.23268431 0.75678456 0.29740122 4288256409
0.30486575 0.82230431 0.34570539 4293138972
0.2544395 0.78066647 0.30622905 4288256409
0.23736706 0.76157856 0.29444557 4288256409
0.30555508 0.82328463 0.34038588 4293138972
0.2446129 0.76763588 0.29399696 4288256409
0.3061811 0.82450902 0.33609694 4293138972
0.2775521 0.80566537 0.31458753 4288256409
0.29870442 0.81426007 0.32508761 4293138972
0.27582529 0.8015303 0.30673736 4288256409
0.26047674 0.78367525 0.2966499 4288256409
0.27891725 0.80442709 0.30337343 4288256409
0.30886152 0.82511485 0.27715513 4293138972
0.30727983 0.82407141 0.27584475 4293138972
0.10771349 0.61436152 0.26764315 4288256409
0.29430193 0.80886686 0.34557667 4293138972
0.30438775 0.82530665 0.35118914 4293138972
0.24815847 0.77827901 0.31050318 4288256409
0.23907222 0.76552832 0.3046025 4288256409
0.22190292 0.74318224 0.29090658 4288256409
0.302062 0.81809354 0.34236076 4293138972
0.25228179 0.77940023 0.3076894 4288256409
0.26215398 0.78768498 0.30282828 4288256409
0.30870962 0.82637441 0.32957301 4293138972
0.27684006 0.80268627 0.30668306 4288256409
0.29894632 0.81439149 0.3195619 4293138972
0.27678016 0.8015728 0.30149192 4288256409
0.30400664 0.81992173 0.32049131 4293138972
0.2806966 0.8057397 0.30145052 4288256409
0.2992034 0.81374085 0.29434162 4293138972
0.2964389 0.81164294 0.34664783 4293138972
0.2215648 0.74413687 0.29223469 4288256409
0.25515166 0.78694689 0.31306243 4288256409
0.2502453 0.77917242 0.30876037 4288256409
0.24369505 0.76976258 0.30449805 4288256409
0.22554874 0.74759573 0.29154524 4288256409
0.29822078 0.81348389 0.3380082 4293138972
0.26382092 0.79167324 0.3105672 4288256409
0.26032013 0.78573757 0.30460489 4288256409
0.27264515 0.79714644 0.29890636 4288256409
0.2806187 0.8057999 0.30372536 4288256409
0.30969718 0.82723808 0.28206769 4293138972
0.20329528 0.72365028 0.29302841 4288256409
0.29514062 0.81040657 0.35514358 4293138972
0.20215209 0.72183871 0.28619918 4288256409
0.22956847 0.75488317 0.30129996 4288256409
0.22400768 0.74663222 0.29502559 4288256409
0.21195869 0.73173356 0.28676796 4288256409
0.29433858 0.80914855 0.33051547 4293138972
0.27067268 0.79928035 0.31144956 4288256409
0.26422969 0.79008144 0.30145335 4288256409
0.27483919 0.80151725 0.30879378 4288256409
0.27745566 0.80147833 0.29739708 4288256409
0.29972407 0.81443542 0.30971679 4293138972
0.31097358 0.83386201 0.30898127 4293138972
0.30985245 0.82702863 0.29064944 4293138972
0.30893183 0.82625479 0.27982122 4293138972
0.20204583 0.72728109 0.30010495 4288256409
0.2312488 0.75630409 0.30149487 4288256409
0.22142257 0.74462944 0.2944116 4288256409
0.21385695 0.73453408 0.28909373 4288256409
0.2095941 0.72847658 0.28631121 4288256409
0.24088508 0.76767397 0.30492353 4288256409
0.29876402 0.83559799 0.34632465 4293138972
0.27493483 0.80717242 0.31677601 4288256409
0.29870692 0.83618915 0.34516412 4293138972
0.30226365 0.81881005 0.3313646 4293138972
0.29730311 0.81265914 0.32241383 4293138972
0.2705642 0.79565507 0.30118123 4288256409
0.30496165 0.83655882 0.32593274 4293138972
0.30720499 0.82334429 0.29929522 4293138972
0.30905643 0.82833749 0.27948141 4293138972
0.16319481 0.68820572 0.29862255 4288256409
0.29371047 0.83542556 0.36838496 4293138972
0.29644331 0.81169802 0.35069928 4293138972
0.30351314 0.82246327 0.35416451 4293138972
0.29822308 0.81329954 0.34963858 4293138972
0.22022608 0.74284852 0.29603973 4288256409
0.20850022 0.72915047 0.28783548 4288256409
0.30432603 0.8230471 0.34651142 4293138972
0.25843918 0.78523064 0.30678278 4288256409
0.25460473 0.78036475 0.30485201 4288256409
0.28045335 0.80774468 0.31038719 4288256409
0.26337785 0.7881307 0.29848853 4288256409
0.2775833 0.8019973 0.2989302 4288256409
0.31084678 0.82749063 0.3098709 4293138972
0.3045316 0.8198812 0.29887196 4293138972
0.30561948 0.82334369 0.28028882 4293138972
0.30252355 0.81956649 0.35766193 4293138972
0.29694995 0.81208968 0.35272512 4293138972
0.21164244 0.73313832 0.29393631 4288256409
0.21911167 0.74263185 0.29690692 4288256409
0.30220437 0.81885093 0.35005805 4293138972
0.2458462 0.77647305 0.31001589 4288256409
0.23459697 0.76033998 0.30144149 4288256409
0.30555251 0.82362992 0.34160489 4293138972
0.26985428 0.80266231 0.31614637 4288256409
0.26589647 0.79676384 0.31292507 4288256409
0.25761363 0.78441203 0.30787447 4288256409
0.30606064 0.82949775 0.34151113 4293138972
0.29766953 0.81468469 0.33389595 4293138972
0.27247098 0.80158544 0.3129302 4288256409
0.27453357 0.80049115 0.30573508 4288256409
0.31053472 0.82780451 0.29715171 4293138972
0.19447453 0.71587676 0.29529768 4288256409
0.29169548 0.83491206 0.3690339 4293138972
0.22825511 0.75686473 0.30569264 4288256409
0.21896812 0.74397838 0.30123913 4288256409
0.24909534 0.77452886 0.30376387 4288256409
0.29997057 0.81718749 0.33328944 4293138972
0.26812863 0.79526174 0.30849087 4288256409
0.25464025 0.77948093 0.29895514 4288256409
0.3048631 0.82270592 0.32922873 4293138972
0.30120865 0.81723726 0.29615179 4293138972
0.19960077 0.71933073 0.28964499 4288256409
0.29616538 0.81155306 0.35397071 4293138972
0.21624398 0.74193066 0.30130297 4288256409
0.2148609 0.73759013 0.29676288 4288256409
0.21123004 0.73342317 0.29521972 4288256409
0.30353066 0.82049328 0.35481307 4293138972
0.21272108 0.73413509 0.29026797 4288256409
0.21161233 0.73271745 0.28994739 4288256409
0.29282576 0.80789381 0.34271762 4293138972
0.24008611 0.76832485 0.30655375 4288256409
0.24638127 0.77333295 0.30575743 4288256409
0.29227057 0.80781394 0.33381936 4293138972
0.29658857 0.81298137 0.33400181 4293138972
0.29930136 0.81594563 0.33472893 4293138972
0.272194 0.80223382 0.31375441 4288256409
0.26508743 0.79253066 0.30892769 4288256409
0.30838481 0.82653695 0.33501598 4293138972
0.25813544 0.78310794 0.29852861 4288256409
0.26589507 0.79182822 0.30125317 4288256409
0.29820496 0.81308013 0.30725455 4293138972
0.3018128 0.81695384 0.28080934 4293138972
0.30334973 0.81897348 0.27634144 4293138972
0.20515744 0.7332058 0.30272901 4288256409
0.30098665 0.8207615 0.35960495 4293138972
0.22262004 0.75155377 0.30489743 4288256409
0.21465218 0.738554 0.29933354 4288256409
0.30012128 0.81579524 0.35547236 4293138972
0.24398762 0.77310818 0.30871001 4288256409
0.22375567 0.7456302 0.29104581 4288256409
0.30030331 0.83178991 0.34745121 4293138972
0.29384404 0.80913717 0.33230191 4293138972
0.2793411 0.805933 0.31247228 4288256409
0.26845518 0.79349428 0.29851183 4288256409
0.28360951 0.80871111 0.30325037 4288256409
0.27831522 0.80307543 0.30004349 4288256409
0.30281112 0.81821716 0.31504661 4293138972
0.30385551 0.8196606 0.27466831 4293138972
0.29892713 0.81399286 0.35187957 4293138972
0.29319763 0.80886966 0.33905932 4293138972
0.252022 0.7839213 0.31212425 4288256409
0.30047184 0.81652355 0.34279522 4293138972
0.29572856 0.81231558 0.34010702 4293138972
0.25651222 0.78454286 0.30888316 4288256409
0.26321563 0.78942651 0.30604431 4288256409
0.2633422 0.78938556 0.30340216 4288256409
0.29721507 0.81325936 0.32584205 4293138972
0.27079153 0.79746819 0.30737635 4288256409
0.30671206 0.83191013 0.32575738 4293138972
0.30782083 0.82487386 0.29995069 4293138972
0.30206496 0.81829578 0.29646292 4293138972
0.29820648 0.84665662 0.3123439 4293138972
0.29683161 0.81453031 0.35944822 4293138972
0.20950563 0.73301899 0.29855153 4288256409
0.19676322 0.71699536 0.29078767 4288256409
0.30040324 0.8175692 0.35862079 4293138972
0.23056042 0.75891018 0.30522931 4288256409
0.29224187 0.83921039 0.36084208 4293138972
0.29218471 0.84000933 0.36472446 4293138972
0.23877417 0.76781547 0.30736446 4288256409
0.30355892 0.82089859 0.35074425 4293138972
0.29482177 0.81074274 0.34026209 4293138972
0.22847888 0.75229996 0.29419729 4288256409
0.25768414 0.78407413 0.30593255 4288256409
0.26221189 0.78805411 0.30511305 4288256409
0.30942693 0.82569635 0.29779938 4293138972
0.19434077 0.71434641 0.29234499 4288256409
0.22158812 0.75247842 0.30665123 4288256409
0.21458896 0.74000692 0.30079302 4288256409
0.19141112 0.70962524 0.28520611 4288256409
0.22698396 0.75133353 0.29914629 4288256409
0.29465899 0.81052494 0.34181267 4293138972
0.23322798 0.75802845 0.29879102 4288256409
0.24500902 0.77037334 0.3031916 4288256409
0.30574486 0.82398736 0.32983011 4293138972
0.26712951 0.79275554 0.30081934 4288256409
0.27142113 0.7972216 0.30164406 4288256409
0.30607247 0.82214034 0.31444407 4293138972
0.3077341 0.82604432 0.31271321 4293138972
0.29921097 0.8141011 0.30720395 4293138972
0.3022939 0.81851619 0.28389975 4293138972
0.30361107 0.82078898 0.28005916 4293138972
0.30945727 0.8295207 0.28155714 4293138972
0.19637896 0.71751297 0.29519379 4288256409
0.21779613 0.74066401 0.29485145 4288256409
0.21471015 0.7361719 0.29007217 4288256409
0.30360156 0.8210327 0.34915084 4293138972
0.24981353 0.78012025 0.31024924 4288256409
0.24618207 0.77513039 0.30881312 4288256409
0.22745954 0.75067109 0.29330367 4288256409
0.26562208 0.79875547 0.31565511 4288256409
0.22963981 0.75219572 0.2906763 4288256409
0.30557248 0.82297045 0.34323522 4293138972
0.24309778 0.76795989 0.29432386 4288256409
0.26378664 0.78818512 0.29655167 4288256409
0.30643889 0.82344103 0.3130118 4293138972
0.31085941 0.82837701 0.2990678 4293138972
0.30314419 0.82025886 0.29223165 4293138972
0.31144008 0.83325315 0.29023787 4293138972
0.19635566 0.71526271 0.28688115 4288256409
0.22509326 0.75454837 0.30552036 4288256409
0.23677605 0.7624498 0.30148938 4288256409
0.30069497 0.82990521 0.35103747 4293138972
0.26038119 0.79043126 0.31159824 4288256409
0.24527182 0.77065587 0.30157152 4288256409
0.26031134 0.78669763 0.30531013 4288256409
0.27578351 0.80447084 0.31310582 4288256409
0.29956412 0.81553024 0.31791502 4293138972
0.30618379 0.8226701 0.30613056 4293138972
0.20835017 0.73701447 0.30298397 4288256409
0.1972529 0.71934617 0.29652941 4288256409
0.20517202 0.72831881 0.29797995 4288256409
0.20057815 0.72206259 0.29451782 4288256409
0.19513527 0.71455616 0.28979373 4288256409
0.22388333 0.75310087 0.30512595 4288256409
0.29403594 0.80968726 0.34813577 4293138972
0.22340006 0.74723452 0.29291248 4288256409
0.26641029 0.79840487 0.31436273 4288256409
0.27719384 0.80440104 0.30861419 4288256409
0.28771976 0.83893949 0.32504293 4293138972
0.27497759 0.80053186 0.30110422 4288256409
0.30989119 0.83534813 0.30092099 4293138972
0.3086873 0.82619488 0.28518248 4293138972
0.12297842 0.63503999 0.26487485 4288256409
0.21018337 0.73933125 0.30341071 4288256409
0.1991789 0.71881205 0.29220209 4288256409
0.29965833 0.82926542 0.35831395 4293138972
0.20135321 0.72130412 0.28746063 4288256409
0.22310801 0.74699265 0.29645568 4288256409
0.25585738 0.78318852 0.30698615 4288256409
0.29618001 0.81207597 0.33307049 4293138972
0.25886646 0.78534693 0.30302513 4288256409
0.30494177 0.82349324 0.33212698 4293138972
0.30407867 0.82209736 0.33019936 4293138972
0.27579239 0.80294776 0.30957204 4288256409
0.25949612 0.78437287 0.29743868 4288256409
0.26161665 0.78374177 0.29602873 4288256409
0.29897878 0.84584504 0.30582491 4293138972
0.19072889 0.71090311 0.2919361 4288256409
0.3010346 0.82169187 0.35966089 4293138972
0.29558519 0.81189626 0.3427009 4293138972
0.30645585 0.82531106 0.33006981 4293138972
0.30702817 0.82471687 0.3134841 4293138972
0.30890507 0.82580048 0.30817375 4293138972
0.30731341 0.82470202 0.30805615 4293138972
0.30156061 0.81774062 0.28845719 4293138972
0.31018221 0.83420503 0.29231992 4293138972
0.11759441 0.63089758 0.26329055 4288256409
0.22497652 0.75576752 0.30712923 4288256409
0.22766536 0.7541191 0.30274779 4288256409
0.2987377 0.81464297 0.34825867 4293138972
0.25016144 0.77648777 0.30560476 4288256409
0.25813234 0.78630078 0.30817869 4288256409
0.25291476 0.77916151 0.30477616 4288256409
0.30258471 0.830787 0.34337416 4293138972
0.25614715 0.78182435 0.30217975 4288256409
0.27081543 0.79683256 0.30313697 4288256409
0.19031878 0.71498328 0.29856569 4288256409
0.18885314 0.7103548 0.29436019 4288256409
0.29392809 0.80985457 0.35613871 4293138972
0.29105166 0.83889395 0.36494508 4293138972
0.29186624 0.83281028 0.37004545 4293138972
0.29445502 0.81016201 0.34939462 4293138972
0.24574736 0.7768563 0.30959862 4288256409
0.25703344 0.78595465 0.30901331 4288256409
0.30372533 0.82182056 0.33416766 4293138972
0.30690524 0.8244251 0.29313028 4293138972
0.19298261 0.71508944 0.29660314 4288256409
0.29921529 0.82946217 0.3599892 4293138972
0.22879878 0.75536454 0.30282825 4288256409
0.22377649 0.74827087 0.29954138 4288256409
0.30319822 0.82787782 0.35071507 4293138972
0.25270128 0.78544325 0.31319413 4288256409
0.22733775 0.75082803 0.29509562 4288256409
0.26086026 0.78540063 0.29664186 4288256409
0.30084431 0.84372008 0.31216472 4293138972
0.30360749 0.82093269 0.27627546 4293138972
0.30960223 0.82786018 0.2710419 4293138972
0.20967695 0.73468095 0.29956603 4288256409
0.21823098 0.7460621 0.30304962 4288256409
0.22207685 0.7485494 0.30243164 4288256409
0.24432367 0.77376336 0.3083868 4288256409
0.23785405 0.76391155 0.30153728 4288256409
0.29690605 0.8138907 0.33975768 4293138972
0.2498915 0.77766502 0.30647409 4288256409
0.2680333 0.7979812 0.31230855 4288256409
0.24513766 0.77031296 0.29622874 4288256409
0.24575163 0.76838958 0.29394463 4288256409
0.29856941 0.81507146 0.32944039 4293138972
0.2749078 0.80291796 0.31017137 4288256409
0.30243722 0.81868768 0.30430073 4293138972
0.30152795 0.84335017 0.31240168 4293138972
0.30995849 0.82765502 0.29815483 4293138972
0.18837664 0.71072304 0.29589501 4288256409
0.18602781 0.70714074 0.29349196 4288256409
0.1861563 0.70591623 0.29061183 4288256409
0.29714909 0.83242148 0.35665441 4293138972
0.29290017 0.83843189 0.36153501 4293138972
0.30253169 0.83023059 0.35008135 4293138972
0.25338164 0.7790044 0.30378631 4288256409
0.25182661 0.77765781 0.3035244 4288256409
0.27017573 0.80132908 0.31408399 4288256409
0.26509279 0.7911064 0.30319217 4288256409
0.29548344 0.8423124 0.34356695 4293138972
0.30716038 0.83896732 0.30035967 4293138972
0.3022939 0.81882077 0.27754021 4293138972
0.30353373 0.82243526 0.34805703 4293138972
0.30912852 0.83036578 0.27738759 4293138972
0.30779555 0.82500273 0.2679047 4293138972
0.15931469 0.68148929 0.29495624 4288256409
0.19167878 0.71650368 0.29991406 4288256409
0.19783582 0.7246511 0.30128303 4288256409
0.19982931 0.72575772 0.30021891 4288256409
0.19644178 0.72029215 0.29772374 4288256409
0.19060953 0.71147054 0.29412222 4288256409
0.1882115 0.7088601 0.29117426 4288256409
0.20713049 0.73496723 0.30166122 4288256409
0.22067107 0.74733299 0.30255854 4288256409
0.22973251 0.75928229 0.30584586 4288256409
0.23436992 0.7628926 0.30584788 4288256409
0.22811788 0.75281543 0.3009643 4288256409
0.29669142 0.81394523 0.33019134 4293138972
0.26519403 0.79196489 0.3050501 4288256409
0.30781683 0.83497363 0.31891221 4293138972
0.30485559 0.82111341 0.30086321 4293138972
0.18688345 0.71181315 0.29821444 4288256409
0.18885925 0.71242672 0.29698586 4288256409
0.2984378 0.81739324 0.35959452 4293138972
0.21393044 0.74178219 0.30293372 4288256409
0.29416895 0.8097344 0.35292798 4293138972
0.20697434 0.72838598 0.29343608 4288256409
0.30035898 0.81653148 0.34665686 4293138972
0.24637544 0.77497923 0.30679151 4288256409
0.24505059 0.77045852 0.29870284 4288256409
0.27870703 0.80414361 0.29970202 4288256409
0.29974633 0.84299171 0.32174823 4293138972
0.29276329 0.80942035 0.35682499 4293138972
0.19268186 0.71200907 0.2883898 4288256409
0.29662174 0.81328076 0.35709402 4293138972
0.20359507 0.72385705 0.28694636 4288256409
0.23854731 0.76842779 0.3083995 4288256409
0.30275381 0.82056361 0.34509626 4293138972
0.30569971 0.82541037 0.33751264 4293138972
0.27187115 0.8028006 0.3146596 4288256409
0.24981968 0.77460635 0.2978076 4288256409
0.27259576 0.80195093 0.31184056 4288256409
0.29821086 0.81446904 0.31362909 4293138972
0.30173919 0.83967239 0.32621932 4293138972
0.2998465 0.81484765 0.2924279 4293138972
0.30285683 0.82029259 0.28416979 4293138972
0.18408771 0.70697296 0.29555589 4288256409
0.18158734 0.70282608 0.2948893 4288256409
0.19128455 0.71288562 0.29552421 4288256409
0.18675934 0.70600128 0.28889975 4288256409
0.23260644 0.76048762 0.30514044 4288256409
0.21366733 0.73575813 0.29242283 4288256409
0.24148385 0.77133876 0.30786932 4288256409
0.22617617 0.74741381 0.28870746 4288256409
0.27862075 0.80763417 0.31420442 4288256409
0.29670122 0.84600139 0.32128552 4293138972
0.19858411 0.7204712 0.29573691 4288256409
0.190863 0.71092731 0.29021162 4288256409
0.2073912 0.73098266 0.29750267 4288256409
0.22759362 0.75777411 0.30701289 4288256409
0.22529057 0.74903196 0.29251042 4288256409
0.24350767 0.76841253 0.29629454 4288256409
0.26589441 0.79387426 0.30951193 4288256409
0.30708817 0.83032578 0.3294799 4293138972
0.29952082 0.84234685 0.33285514 4293138972
0.30058855 0.81650853 0.30402237 4293138972
0.186176 0.70855296 0.29545051 4288256409
0.18312818 0.70257694 0.29133141 4288256409
0.29376495 0.81070679 0.35779756 4293138972
0.19255099 0.71217293 0.29007125 4288256409
0.22493187 0.74915099 0.29971692 4288256409
0.29462552 0.81052589 0.34550694 4293138972
0.24468851 0.77112013 0.30456495 4288256409
0.29122862 0.84225374 0.35560793 4293138972
0.24971893 0.7754178 0.29895642 4288256409
0.2716085 0.79775643 0.30251116 4288256409
0.30555812 0.82223183 0.30642268 4293138972
0.30847853 0.82704175 0.29104942 4293138972
0.30308306 0.8200227 0.27718225 4293138972
0.17162082 0.69258279 0.29422116 4288256409
0.16488682 0.68342406 0.29148743 4288256409
0.18465412 0.70942318 0.2977744 4288256409
0.20158868 0.72338879 0.29395351 4288256409
0.30050462 0.81723905 0.35330436 4293138972
0.21506119 0.73741001 0.2940743 4288256409
0.30039406 0.83058202 0.34877411 4293138972
0.25952339 0.78906387 0.31113848 4288256409
0.23376532 0.75778973 0.2926344 4288256409
0.29379162 0.80984628 0.3308937 4293138972
0.24910019 0.775006 0.3004964 4288256409
0.30631429 0.82504064 0.33720648 4293138972
0.2978304 0.81439954 0.32004204 4293138972
0.30142346 0.81804556 0.31869367 4293138972
0.30844158 0.8267715 0.31164944 4293138972
0.30758086 0.82560194 0.30884677 4293138972
0.30956632 0.83531141 0.30672517 4293138972
0.30805463 0.83701062 0.30681574 4293138972
0.17420655 0.70035702 0.29780936 4288256409
0.17845742 0.70314562 0.29739231 4288256409
0.20480648 0.73157001 0.30071065 4288256409
0.28751701 0.83137786 0.32686019 4293138972
0.29588956 0.84215885 0.3388657 4293138972
0.3053174 0.82247967 0.31576046 4293138972
0.29945523 0.81532133 0.29698426 4293138972
0.17756496 0.69908798 0.29465592 4288256409
0.19289269 0.72107482 0.30158806 4288256409
0.23208386 0.75981778 0.30364761 4288256409
0.23466426 0.76166642 0.3032766 4288256409
0.2320243 0.75875032 0.30179775 4288256409
0.21707255 0.73889583 0.29114461 4288256409
0.24287897 0.77014112 0.30595174 4288256409
0.3065609 0.82473844 0.33204398 4293138972
0.29757178 0.81404853 0.32207379 4293138972
0.30743712 0.83570516 0.31578884 4293138972
0.3009176 0.81788397 0.29172766 4293138972
0.30058584 0.81704205 0.28710675 4293138972
0.30843335 0.8306914 0.27768233 4293138972
0.30907482 0.82934183 0.27219689 4293138972
0.16281283 0.68409586 0.2940768 4288256409
0.16706213 0.68699902 0.29301566 4288256409
0.29902455 0.81514513 0.35447568 4293138972
0.23132718 0.76090485 0.30583882 4288256409
0.29421633 0.83664125 0.36113974 4293138972
0.22890162 0.75351197 0.29534599 4288256409
0.27477983 0.80444145 0.31396899 4288256409
0.30770233 0.8260088 0.32704818 4293138972
0.16519688 0.68801534 0.29513434 4288256409
0.18010795 0.70587856 0.29829025 4288256409
0.17420265 0.69851089 0.29626924 4288256409
0.1813501 0.70642412 0.2972396 4288256409
0.29825214 0.81515741 0.32301089 4293138972
0.29884207 0.84241885 0.32397217 4293138972
0.24717364 0.77507323 0.30573547 4288256409
0.30743852 0.83218122 0.33176365 4293138972
0.30832216 0.82937425 0.27450922 4293138972
0.30892763 0.82878321 0.27417815 4293138972
0.15741327 0.67763424 0.29299629 4288256409
0.15631686 0.67543477 0.29212102 4288256409
0.18027741 0.69959825 0.29061365 4288256409
0.18083568 0.69882995 0.28590766 4288256409
0.19990025 0.72069699 0.29111874 4288256409
0.21727003 0.7412039 0.29819942 4288256409
0.24198641 0.76785773 0.30062136 4288256409
0.30246809 0.82074469 0.34185088 4293138972
0.25017634 0.77457374 0.29532403 4288256409
0.27723128 0.80329651 0.30040541 4288256409
0.29986799 0.81606066 0.31430501 4293138972
0.3080377 0.82580024 0.30420059 4293138972
0.20058836 0.72131586 0.28978243 4288256409
0.29537338 0.81196874 0.34737712 4293138972
0.22998184 0.75601161 0.29953626 4288256409
0.29324594 0.80885166 0.33341029 4293138972
0.25864089 0.78846622 0.31027117 4288256409
0.25383782 0.78204131 0.3075242 4288256409
0.24649557 0.77230877 0.3017672 4288256409
0.30287692 0.82035476 0.32828116 4293138972
0.2745063 0.80088335 0.30251572 4288256409
0.29624233 0.81142229 0.31355503 4293138972
0.30438033 0.82110649 0.29863712 4293138972
0.30986905 0.83028841 0.28594404 4293138972
0.30780727 0.82942611 0.27031723 4293138972
0.17396547 0.69145876 0.2866863 4288256409
0.2038442 0.72538257 0.29363772 4288256409
0.23005234 0.75780553 0.30308688 4288256409
0.30242339 0.81992364 0.34782556 4293138972
0.21954985 0.74120671 0.28981185 4288256409
0.2146523 0.73540324 0.28646725 4288256409
0.30575934 0.82400578 0.33696935 4293138972
0.30389354 0.82252419 0.33526799 4293138972
0.30022573 0.81714159 0.28847864 4293138972
0.29679278 0.84676689 0.28329822 4293138972
0.17229734 0.69754779 0.29698896 4288256409
0.15772365 0.67267728 0.28529429 4288256409
0.15978914 0.67462218 0.28392848 4288256409
0.17572802 0.69425339 0.28921953 4288256409
0.17689274 0.69460499 0.28613231 4288256409
0.1847214 0.70316988 0.28711435 4288256409
0.22283068 0.74939471 0.30243284 4288256409
0.29647526 0.81357175 0.33593911 4293138972
0.26938933 0.79593736 0.30350646 4288256409
0.3031483 0.81921673 0.31005883 4293138972
0.29913661 0.84618187 0.30320346 4293138972
0.07840763 0.59871465 0.28292227 4288256409
0.2200858 0.74374604 0.29793638 4288256409
0.29245928 0.80804878 0.3367604 4293138972
0.25796157 0.79097784 0.31356943 4288256409
0.29389712 0.84255856 0.34827194 4293138972
0.1412864 0.65599269 0.28686401 4288256409
0.18580844 0.70374727 0.28330374 4288256409
0.30253464 0.82039887 0.34846205 4293138972
0.24586321 0.77216816 0.30311841 4288256409
0.29382008 0.81025332 0.33252549 4293138972
0.15273969 0.6724897 0.29225895 4288256409
0.17370892 0.69346434 0.29294187 4288256409
0.19954714 0.72209269 0.29525751 4288256409
0.30180466 0.82602656 0.35112277 4293138972
0.2546016 0.78575754 0.31089014 4288256409
0.30083597 0.83419979 0.34448907 4293138972
0.30499214 0.8235935 0.33774501 4293138972
0.27541581 0.80204022 0.30282238 4288256409
0.30888605 0.82705039 0.30136603 4293138972
0.30870292 0.82852787 0.27553868 4293138972
0.18483813 0.70235854 0.28480893 4288256409
0.29983112 0.81850719 0.35899198 4293138972
0.30220819 0.81937373 0.35194361 4293138972
0.30391252 0.8217234 0.34565476 4293138972
0.29707 0.81416494 0.34140009 4293138972
0.25654557 0.78220969 0.30035436 4288256409
0.29853955 0.81559539 0.32629049 4293138972
0.27619514 0.80381024 0.30654609 4288256409
0.3069756 0.82717025 0.27588838 4293138972
0.30878332 0.83136702 0.26660466 4293138972
0.14783138 0.66753197 0.29170007 4288256409
0.18303196 0.70363492 0.29290673 4288256409
0.19262005 0.71371007 0.29306641 4288256409
