# .PCD v0.7 - Point Cloud Data file format
VERSION 0.7
FIELDS x y z rgba
SIZE 4 4 4 4
TYPE F F F U
COUNT 1 1 1 1
WIDTH 1093
HEIGHT 1
VIEWPOINT 0 0 0 1 0 0 0
POINTS 1093
DATA ascii
0.1639585 0.7241537 0.27146628 4288256409
0.25102946 0.79218405 0.28685939 4293138972
0.10636212 0.67259276 0.2764585 4288256409
0.10835122 0.67422312 0.27721512 4288256409
0.16511518 0.72450489 0.27242294 4288256409
0.20657068 0.75612283 0.27714804 4288256409
0.22005722 0.76856387 0.27518114 4288256409
0.16539536 0.72526109 0.2650106 4288256409
0.10367603 0.6704188 0.27659556 4288256409
0.1520711 0.71412665 0.26457861 4288256409
0.15447897 0.71648437 0.26482162 4288256409
0.26710662 0.83419359 0.2879211 4293138972
0.088801891 0.66279495 0.26755106 4288256409
0.15887271 0.7164315 0.262669 4288256409
0.23493953 0.77942556 0.28101191 4288256409
0.27265173 0.83880198 0.27993849 4293138972
0.2661038 0.83190185 0.26190346 4293138972
0.20244609 0.75381553 0.27542874 4288256409
0.26473823 0.83123213 0.28405896 4293138972
0.27487281 0.8394137 0.27073455 4293138972
0.09691494 0.66320449 0.27539593 4288256409
0.11199129 0.67632228 0.27856126 4288256409
0.212378 0.76124144 0.29590347 4288256409
0.17156543 0.7286194 0.26474336 4288256409
0.19100501 0.7338618 0.28478637 4288256409
0.27123332 0.83741653 0.30352533 4293138972
0.27042994 0.83632725 0.31406853 4293138972
0.25178432 0.79340035 0.28891847 4293138972
0.30441901 0.83944517 0.29777232 4293138972
0.29917225 0.83653307 0.3349148 4293138972
0.25075713 0.79291791 0.2940779 4293138972
0.24687293 0.78966808 0.28342032 4288256409
0.30374146 0.83892149 0.30692279 4293138972
0.2162184 0.76393002 0.28040439 4288256409
0.25690466 0.82420623 0.30843484 4293138972
0.30404791 0.83974171 0.3008036 4293138972
0.10281666 0.66754383 0.27648422 4288256409
0.26072097 0.82758576 0.32185391 4293138972
0.23549429 0.77997392 0.28579748 4288256409
0.23881799 0.78078192 0.28279653 4288256409
0.30111745 0.83946997 0.31121784 4293138972
0.14686735 0.71053851 0.26160392 4288256409
0.20204826 0.75535476 0.28364706 4288256409
0.22129896 0.76882511 0.28306642 4288256409
0.11049185 0.67459065 0.27823129 4288256409
0.16559085 0.72235203 0.28740317 4288256409
0.26953182 0.83633208 0.31796262 4293138972
0.25166696 0.7940194 0.29136711 4293138972
0.10685317 0.67097259 0.27788454 4288256409
0.18808942 0.74335301 0.27151889 4288256409
0.15988038 0.71954989 0.28750303 4288256409
0.27187359 0.83732462 0.29682744 4293138972
0.064215153 0.63329148 0.2690534 4288256409
0.089522257 0.6589641 0.27424994 4288256409
0.22489388 0.77244931 0.29732224 4288256409
0.262582 0.8293221 0.30158058 4293138972
0.26317587 0.831056 0.30202654 4293138972
0.26385117 0.83124328 0.29934552 4293138972
0.072736748 0.6488924 0.26797423 4288256409
0.19248703 0.74890107 0.28539479 4288256409
0.0589099 0.63222879 0.26835269 4288256409
0.087890767 0.65732664 0.27258077 4288256409
0.1890441 0.74165922 0.29218075 4288256409
0.21763571 0.76500481 0.29760066 4288256409
0.27215815 0.83862895 0.28733051 4293138972
0.17767406 0.73471963 0.2708655 4288256409
0.057405233 0.63342965 0.26678249 4288256409
0.073749788 0.64618945 0.27039787 4288256409
0.16845532 0.72486115 0.28921914 4288256409
0.2644791 0.83129019 0.32679322 4293138972
0.27119005 0.83701414 0.30792972 4293138972
0.27350736 0.83891982 0.2817339 4293138972
0.27073169 0.8378908 0.2920047 4293138972
0.092869639 0.66207379 0.27400717 4288256409
0.17520761 0.73180044 0.28794101 4288256409
0.21822833 0.76619047 0.29478964 4288256409
0.19551766 0.74879897 0.27266899 4288256409
0.24538094 0.78859651 0.28258547 4288256409
0.15981548 0.71795511 0.28809112 4288256409
0.16186981 0.72034413 0.28824592 4288256409
0.16552663 0.72147733 0.28876153 4288256409
0.22570802 0.77182347 0.27865225 4288256409
0.17327371 0.72913867 0.28993881 4288256409
0.23383236 0.77873302 0.29480937 4288256409
0.25593638 0.79057437 0.28022122 4293138972
0.17034523 0.72639495 0.29031637 4288256409
0.17235917 0.73276132 0.28033188 4288256409
0.26661631 0.83411276 0.26418799 4293138972
0.084086545 0.65412772 0.27328485 4288256409
0.16023269 0.71679759 0.2891427 4288256409
0.17431431 0.73242337 0.2899133 4288256409
0.19857608 0.73635727 0.26458594 4288256409
0.21775827 0.76622272 0.27606511 4288256409
0.23551266 0.77865213 0.28304631 4288256409
0.23235872 0.77658874 0.28027755 4288256409
0.14097805 0.70487869 0.26726282 4288256409
0.15624377 0.71514088 0.26102388 4288256409
0.17243738 0.72890425 0.26843312 4288256409
0.25093052 0.79383671 0.2974875 4293138972
0.21422951 0.7645421 0.27607536 4288256409
0.24649243 0.78933758 0.28025505 4288256409
0.15237823 0.71120775 0.28733906 4288256409
0.12901387 0.69562268 0.27392444 4288256409
0.18420185 0.73634243 0.2940034 4288256409
0.18653862 0.73930228 0.29200256 4288256409
0.1883146 0.74276274 0.27690592 4288256409
0.20036443 0.75201535 0.27546546 4288256409
0.24039438 0.78391045 0.29941288 4288256409
0.18590836 0.74104947 0.27740538 4288256409
0.19303605 0.74689317 0.27361742 4288256409
0.24663554 0.78940332 0.30069783 4288256409
0.16586149 0.72503406 0.26955396 4288256409
0.17067917 0.72867697 0.27092007 4288256409
0.17823906 0.73296368 0.29012334 4288256409
0.15073811 0.71281725 0.26543239 4288256409
0.17101812 0.72482526 0.26402315 4288256409
0.22738117 0.76954961 0.27828225 4288256409
0.20879929 0.75988537 0.28373381 4288256409
0.23891546 0.77812481 0.28015238 4288256409
0.30019161 0.84427267 0.29244566 4293138972
0.25364187 0.81895816 0.33318788 4293138972
0.21209379 0.76111931 0.27948803 4288256409
0.26913303 0.83475941 0.30875903 4293138972
0.14756006 0.71101749 0.26354176 4288256409
0.17130038 0.72753841 0.26799789 4288256409
0.17546189 0.73196524 0.26901165 4288256409
0.23203544 0.77727407 0.29954582 4288256409
0.22355133 0.76984113 0.28521189 4288256409
0.15937501 0.71887845 0.26607618 4288256409
0.2293954 0.77414012 0.29977095 4288256409
0.30790257 0.84153181 0.26233277 4293138972
0.21971869 0.75402993 0.29066911 4288256409
0.27326226 0.82212055 0.3434613 4293138972
0.27091688 0.83729929 0.2754769 4293138972
0.072477117 0.64369184 0.2695446 4288256409
0.1716007 0.73009539 0.27817419 4288256409
0.2716009 0.83758044 0.29307333 4293138972
0.3081167 0.84250808 0.26429057 4293138972
0.10088456 0.67433906 0.26577404 4288256409
0.17256074 0.72990817 0.27125394 4288256409
0.2339936 0.77824545 0.30056083 4288256409
0.27095482 0.83812475 0.28377286 4293138972
0.07514704 0.6451419 0.2708286 4288256409
0.077671766 0.64639992 0.2716094 4288256409
0.17332262 0.7273308 0.2906954 4288256409
0.16007848 0.72211242 0.27745995 4288256409
0.16904843 0.72720915 0.27083772 4288256409
0.25601012 0.82138067 0.32820177 4293138972
0.17338975 0.73008209 0.26815748 4288256409
0.25686991 0.82347965 0.29992405 4293138972
0.26256928 0.82812148 0.29556814 4293138972
0.2700054 0.83652872 0.29781327 4293138972
0.27001742 0.83550137 0.2800388 4293138972
0.14376536 0.70799243 0.26506257 4288256409
0.1738805 0.73151624 0.2730585 4288256409
0.22040379 0.76718885 0.29662219 4288256409
0.26917499 0.83515042 0.30555719 4293138972
0.27205676 0.8370415 0.29910064 4293138972
0.30179778 0.84278208 0.29312813 4293138972
0.27755919 0.84095091 0.26068071 4293138972
0.089863151 0.66233969 0.27245677 4288256409
0.13697952 0.70202744 0.26501781 4288256409
0.25376743 0.81867152 0.33145687 4293138972
0.2699855 0.83668149 0.30489299 4293138972
0.2681095 0.83447576 0.29881471 4293138972
0.27483591 0.83953792 0.28751013 4293138972
0.16476528 0.72431815 0.27487677 4288256409
0.23074125 0.77584308 0.29962027 4288256409
0.22790022 0.77292144 0.28582293 4288256409
0.266653 0.83373851 0.30684164 4293138972
0.13457984 0.70065504 0.26254812 4288256409
0.14962369 0.71207458 0.26593733 4288256409
0.26695263 0.83327556 0.31370062 4293138972
0.26427627 0.8320114 0.30669302 4293138972
0.27227655 0.83646232 0.30881259 4293138972
0.22789778 0.77218986 0.29980454 4288256409
0.070448063 0.63977313 0.26961526 4288256409
0.13105004 0.69258171 0.28343472 4288256409
0.16637048 0.72111738 0.29105246 4288256409
0.14437911 0.70870042 0.27227119 4288256409
0.1544245 0.71530908 0.26525792 4288256409
0.29160392 0.83960283 0.33751893 4293138972
0.26561481 0.83304924 0.26235652 4293138972
0.13157254 0.69792914 0.26168019 4288256409
0.22602956 0.77002376 0.30031633 4288256409
0.25776672 0.82531184 0.32030919 4293138972
0.24309044 0.77933776 0.27906963 4288256409
0.25454333 0.79442966 0.28787985 4293138972
0.26750574 0.83437461 0.30706677 4293138972
0.068370134 0.6365431 0.26911932 4288256409
0.12096047 0.68880188 0.26161495 4288256409
0.25332522 0.7948395 0.28937018 4293138972
0.27183682 0.83829939 0.2916103 4293138972
0.3017104 0.84383649 0.28667754 4293138972
0.14463906 0.70765966 0.26966369 4288256409
0.29271498 0.83915323 0.34009835 4293138972
0.26949012 0.83578038 0.30359358 4293138972
0.30196542 0.84321076 0.28817514 4293138972
0.067460507 0.637945 0.26806214 4288256409
0.15477811 0.72353226 0.28471199 4288256409
0.19058026 0.74489135 0.27288055 4288256409
0.27005562 0.83392608 0.32506382 4293138972
0.26653567 0.83348328 0.30440453 4293138972
0.27536201 0.83952808 0.26765189 4293138972
0.12934794 0.69651413 0.26020542 4288256409
0.25897691 0.792045 0.27769071 4293138972
0.2655924 0.83320129 0.30928096 4293138972
0.30339009 0.84243524 0.29044238 4293138972
0.27458742 0.83909178 0.27246374 4293138972
0.28709072 0.85330474 0.26239023 4293138972
0.12746803 0.69497311 0.26818258 4288256409
0.30110162 0.83954513 0.31376952 4293138972
0.28799441 0.83845335 0.33872524 4293138972
0.27498496 0.83958977 0.2938582 4293138972
0.3047221 0.84113878 0.29284024 4293138972
0.071020544 0.64225495 0.26874167 4288256409
0.26487708 0.83125973 0.30803207 4293138972
0.29796591 0.84088272 0.31760663 4293138972
0.27090698 0.83744287 0.30581787 4293138972
0.25945771 0.82476932 0.29201889 4293138972
0.30654439 0.84267014 0.27446857 4293138972
0.30497018 0.84301335 0.27311775 4293138972
0.14280166 0.70655638 0.26547688 4288256409
0.30794308 0.84207952 0.26906255 4293138972
0.28845286 0.83969569 0.34564739 4293138972
0.30210412 0.83759052 0.31999537 4293138972
0.27236497 0.83835369 0.28287244 4293138972
0.2715174 0.83742255 0.27891061 4293138972
0.30415079 0.843611 0.27665123 4293138972
0.16895583 0.72471792 0.26479614 4288256409
0.2912977 0.83845866 0.34454641 4293138972
0.26880008 0.8347699 0.29243448 4293138972
0.30081016 0.84210813 0.2999455 4293138972
0.30575353 0.8431713 0.27014041 4293138972
0.11454006 0.68504536 0.26793861 4288256409
0.25915527 0.82606441 0.33569962 4293138972
0.26941681 0.83400667 0.31927675 4293138972
0.26826587 0.83390373 0.31074333 4293138972
0.30152696 0.84231853 0.29516774 4293138972
0.30495688 0.84333718 0.27824128 4293138972
0.30388176 0.84372365 0.27101901 4293138972
0.30656299 0.84280556 0.26088923 4293138972
0.12966079 0.6962862 0.26230133 4288256409
0.16071352 0.71959472 0.26668227 4288256409
0.17611103 0.7362991 0.28336337 4288256409
0.26843154 0.83434504 0.29621303 4293138972
0.26396841 0.83033997 0.28784558 4293138972
0.26978859 0.83630127 0.27666745 4293138972
0.3023583 0.84398884 0.28142285 4293138972
0.073800258 0.64354253 0.27098072 4288256409
0.13902193 0.70309293 0.26800331 4288256409
0.25591847 0.82185918 0.3374649 4293138972
0.13919534 0.69628078 0.27629906 4288256409
0.25508538 0.82084507 0.33560672 4293138972
0.29159895 0.8378284 0.34805498 4293138972
0.19708475 0.74734032 0.29364723 4288256409
0.25259668 0.7948103 0.29802448 4293138972
0.2529963 0.79438883 0.29559225 4293138972
0.25306034 0.79580462 0.29754356 4293138972
0.28152862 0.82658607 0.34099329 4293138972
0.30459529 0.84226882 0.28067186 4293138972
0.13917619 0.70385659 0.26704174 4288256409
0.14464384 0.70849043 0.26260889 4288256409
0.21446832 0.76354355 0.29840833 4288256409
0.25396591 0.81758291 0.33538264 4293138972
0.30460584 0.84365308 0.26890659 4293138972
0.12663454 0.69364971 0.26189515 4288256409
0.23279236 0.76829702 0.27459013 4288256409
0.25066826 0.79245591 0.29602993 4293138972
0.26723081 0.83331978 0.30743548 4293138972
0.25536972 0.82122958 0.30406797 4293138972
0.25767857 0.82395691 0.29220426 4293138972
0.13346559 0.69474125 0.28404212 4288256409
0.26416069 0.8300004 0.32634282 4293138972
0.24927942 0.79158813 0.30081385 4293138972
0.30139518 0.84220135 0.29821047 4293138972
0.27108598 0.83667642 0.2884492 4293138972
0.14632833 0.71004051 0.26255271 4288256409
0.25563613 0.81900662 0.33555737 4293138972
0.23662239 0.78007853 0.30124664 4288256409
0.26628363 0.83281243 0.31260324 4293138972
0.26600474 0.83219808 0.30121669 4293138972
0.26952219 0.83585656 0.28683728 4293138972
0.16497195 0.72472566 0.27777749 4288256409
0.24831218 0.79011101 0.29997644 4293138972
0.2651909 0.83283824 0.3074961 4293138972
0.25936702 0.82530671 0.28824937 4293138972
0.061453935 0.63884985 0.26108113 4288256409
0.25079054 0.79220051 0.30139413 4293138972
0.29465845 0.83880585 0.3295652 4293138972
0.2729134 0.83889639 0.30252767 4293138972
0.2909826 0.8510673 0.26004323 4293138972
0.094106138 0.66094255 0.27450922 4288256409
0.30717757 0.84230393 0.26699957 4293138972
0.15579854 0.71391189 0.28940544 4288256409
0.18736903 0.73463142 0.26872435 4288256409
0.1362123 0.70073086 0.26506129 4288256409
0.24400555 0.78619337 0.30118263 4288256409
0.25602812 0.8210181 0.30854735 4293138972
0.26044983 0.82512987 0.27961478 4293138972
0.26931551 0.83530849 0.28285119 4293138972
0.27075785 0.8358137 0.26583776 4293138972
0.12094858 0.68898332 0.2716395 4288256409
0.17166859 0.72693139 0.29028109 4288256409
0.26812294 0.83337587 0.32489607 4293138972
0.26588237 0.83239633 0.3160792 4293138972
0.2708571 0.83706003 0.28342396 4293138972
0.27343526 0.83903891 0.27806425 4293138972
0.091071963 0.66271788 0.26457512 4288256409
0.13811712 0.70272517 0.27767026 4288256409
0.21273099 0.76081991 0.29739773 4288256409
0.24844582 0.78972906 0.30398679 4293138972
0.26563936 0.82957673 0.32638788 4293138972
0.26963007 0.835141 0.32315734 4293138972
0.26748189 0.83277148 0.30381107 4293138972
0.15122522 0.71336138 0.26307926 4288256409
0.29559955 0.83514553 0.34370741 4293138972
0.18076423 0.72344005 0.26548541 4288256409
0.2667321 0.83207691 0.31779197 4293138972
0.27551568 0.84045613 0.26450258 4293138972
0.24088958 0.78313369 0.30143905 4288256409
0.24654743 0.78676486 0.30135617 4288256409
0.24740385 0.78686422 0.30428934 4288256409
0.28812039 0.83820099 0.3339017 4293138972
0.30046168 0.84175676 0.30475217 4293138972
0.30339104 0.84353757 0.28366753 4293138972
0.26803634 0.83348149 0.32234415 4293138972
0.27415293 0.83844376 0.3007451 4293138972
0.30104157 0.84248662 0.29739019 4293138972
0.14252149 0.70188165 0.28324121 4288256409
0.30791032 0.84304154 0.26632527 4293138972
0.30814236 0.84247059 0.26758102 4293138972
0.15676048 0.71752959 0.27277002 4288256409
0.16001409 0.71988428 0.26837891 4288256409
0.24517131 0.78499579 0.30329052 4288256409
0.066405512 0.63530612 0.26810262 4288256409
0.13505165 0.69106388 0.27649167 4288256409
0.18235689 0.7373873 0.27587926 4288256409
0.2654117 0.83130008 0.32601756 4293138972
0.26761428 0.8329438 0.32570967 4293138972
0.30687985 0.84273034 0.2715618 4293138972
0.13450927 0.69439793 0.27335417 4288256409
0.23340176 0.77753597 0.28477708 4288256409
0.26877388 0.8349123 0.3065291 4293138972
0.18155253 0.72995579 0.29061174 4288256409
0.29906398 0.84206504 0.31173846 4293138972
0.29433501 0.83980775 0.34198916 4293138972
0.25652725 0.79476154 0.28495288 4293138972
0.15420744 0.70992374 0.28958523 4288256409
0.14131285 0.70484525 0.26433668 4288256409
0.24169947 0.78306019 0.30235228 4288256409
0.30453232 0.84152055 0.29642683 4293138972
0.058142357 0.63725007 0.26048777 4288256409
0.15048791 0.71288061 0.26973468 4288256409
0.24955586 0.78837389 0.30462211 4293138972
0.15709813 0.70602214 0.27425095 4288256409
0.26555964 0.83057761 0.31135979 4293138972
0.26879007 0.83456504 0.3151142 4293138972
0.2773985 0.82901871 0.33455205 4293138972
0.27781433 0.85159725 0.26052031 4293138972
0.2634972 0.82989943 0.31021458 4293138972
0.30490285 0.83789402 0.2735714 4293138972
0.24024376 0.78094524 0.30384845 4288256409
0.26243106 0.82957679 0.31745315 4293138972
0.26903182 0.83462518 0.31836215 4293138972
0.069469601 0.64046603 0.26827073 4288256409
0.15400729 0.71407151 0.26573786 4288256409
0.21278907 0.75848657 0.29654515 4288256409
0.23694767 0.77890432 0.30291447 4288256409
0.25021014 0.79276615 0.29477412 4293138972
0.26887065 0.83583021 0.29550746 4293138972
0.16072717 0.71864676 0.26411644 4288256409
0.15586598 0.71513832 0.2667188 4288256409
0.13825658 0.69826788 0.27376056 4288256409
0.13962471 0.6982466 0.28355715 4288256409
0.1853289 0.72970122 0.26524103 4288256409
0.29447982 0.83741641 0.34565032 4293138972
0.1586262 0.71478915 0.28972694 4288256409
0.25420263 0.81980366 0.32610887 4293138972
0.25502747 0.79709011 0.29806924 4293138972
0.22639133 0.77225685 0.28471741 4288256409
0.25610948 0.79723942 0.29557115 4293138972
0.25729766 0.79807788 0.29152298 4293138972
0.25699338 0.7969743 0.2882387 4293138972
0.16655821 0.72462547 0.2659668 4288256409
0.16973315 0.72524059 0.26636592 4288256409
0.26062274 0.82270384 0.3330656 4293138972
0.29672366 0.83561796 0.34399647 4293138972
0.19186799 0.74671113 0.28281525 4288256409
0.086552672 0.66135001 0.26118705 4288256409
0.25346676 0.79649746 0.30451491 4293138972
0.26353356 0.82921404 0.32137948 4293138972
0.30288336 0.84074801 0.30406809 4293138972
0.26012856 0.8248449 0.27313989 4293138972
0.26936945 0.83502609 0.26984987 4293138972
0.24793942 0.78522903 0.30514619 4288256409
0.26685372 0.83292025 0.32310069 4293138972
0.20192483 0.74512911 0.29096982 4288256409
0.29648054 0.83440804 0.34766376 4293138972
0.10078056 0.6664201 0.27634382 4288256409
0.1813979 0.73647344 0.27719367 4288256409
0.23241565 0.77392006 0.30216467 4288256409
0.13019021 0.6907469 0.28305683 4288256409
0.21377316 0.75966471 0.29765233 4288256409
0.25953522 0.81990427 0.33381063 4293138972
0.30260673 0.83123511 0.34265357 4293138972
0.29790816 0.83437234 0.34469011 4293138972
0.26867473 0.83423835 0.32738322 4293138972
0.21674326 0.76203036 0.27670351 4288256409
0.22322503 0.76615262 0.29540506 4288256409
0.088515282 0.66319567 0.26482552 4288256409
0.21554886 0.76028818 0.30036753 4288256409
0.26020238 0.82735252 0.34246731 4293138972
0.21618862 0.76087296 0.29610845 4288256409
0.16307986 0.71814913 0.29086626 4288256409
0.25457975 0.79788327 0.29690623 4293138972
0.087517515 0.65577048 0.27310768 4288256409
0.091180056 0.65760201 0.27434337 4288256409
0.09258768 0.66030824 0.27546641 4288256409
0.22406228 0.76752669 0.30065766 4288256409
0.26496965 0.83104491 0.30370224 4293138972
0.26944527 0.83490741 0.28943706 4293138972
0.26536438 0.82980835 0.26457494 4293138972
0.21947718 0.7647354 0.29927686 4288256409
0.084998861 0.65269345 0.27205479 4288256409
0.11433106 0.67912823 0.27997166 4288256409
0.11434589 0.67749184 0.27939051 4288256409
0.12741202 0.68692422 0.26701596 4288256409
0.14130242 0.69867015 0.27988049 4288256409
0.30509701 0.84153801 0.29442286 4293138972
0.25625211 0.82090342 0.32169145 4293138972
0.26928985 0.83513421 0.30011812 4293138972
0.1863526 0.7378307 0.29511526 4288256409
0.21975288 0.76419914 0.30114239 4288256409
0.22255719 0.76730019 0.3000496 4288256409
0.22115248 0.76264441 0.27886164 4288256409
0.22321397 0.76454395 0.27878079 4288256409
0.22419418 0.76826322 0.27855474 4288256409
0.2566798 0.79694533 0.29849589 4293138972
0.27121916 0.83617479 0.29515162 4293138972
0.30108324 0.84002012 0.31937009 4293138972
0.099292055 0.66577953 0.27586171 4288256409
0.2511653 0.78993958 0.30584192 4293138972
0.25556833 0.79198897 0.30372399 4293138972
0.25239554 0.79305822 0.30630964 4293138972
0.25249088 0.79349971 0.30547756 4293138972
0.25839657 0.82135296 0.31780782 4293138972
0.1167718 0.68032843 0.28000334 4288256409
0.18640365 0.73553658 0.29379624 4288256409
0.16169634 0.7206701 0.26955208 4288256409
0.25660396 0.82140911 0.30043277 4293138972
0.25669181 0.82114404 0.28699163 4293138972
0.24428047 0.78187668 0.30392823 4288256409
0.25994909 0.82334995 0.29990742 4293138972
0.10535866 0.67000496 0.27833697 4288256409
0.10146749 0.67190415 0.26210582 4288256409
0.11145186 0.67380178 0.27884132 4288256409
0.26322609 0.82837468 0.31146383 4293138972
0.26221481 0.83533072 0.26008099 4293138972
0.12676002 0.69374174 0.26732257 4288256409
0.26687285 0.83298254 0.32132763 4293138972
0.25643194 0.82036668 0.30897167 4293138972
0.29681408 0.8440519 0.30625993 4293138972
0.082135007 0.65018547 0.27355576 4288256409
0.092988476 0.6580947 0.27560213 4288256409
0.16585086 0.71797508 0.26113656 4288256409
0.071576528 0.64510667 0.27001798 4288256409
0.2076547 0.75231004 0.29530439 4288256409
0.25770408 0.82131475 0.29363108 4293138972
0.066793025 0.64247626 0.26274052 4288256409
0.30894208 0.83998954 0.28621617 4293138972
0.30372766 0.84318572 0.28745002 4293138972
0.18158032 0.73608541 0.27217728 4288256409
0.21077216 0.75710112 0.29634142 4288256409
0.2290421 0.76984644 0.27982304 4288256409
0.26999128 0.8369441 0.28570369 4293138972
0.30903131 0.84209621 0.27411288 4293138972
0.30901968 0.84268934 0.2707532 4293138972
0.15044662 0.70443624 0.27986541 4288256409
0.20367372 0.74242306 0.28931797 4288256409
0.2713539 0.83471364 0.31515285 4293138972
0.14174139 0.70520425 0.26268348 4288256409
0.16601916 0.72435713 0.26950276 4288256409
0.16831614 0.72605246 0.27101803 4288256409
0.16856204 0.72510684 0.26748064 4288256409
0.30818412 0.84238923 0.27694288 4293138972
0.30847484 0.84282637 0.27286834 4293138972
0.1255863 0.68660927 0.28252319 4288256409
0.17510782 0.73063624 0.26942229 4288256409
0.25059441 0.7890045 0.30757272 4293138972
0.13443078 0.69408762 0.28483227 4288256409
0.14593244 0.70474958 0.28377643 4288256409
0.1225474 0.68576103 0.28190228 4288256409
0.13845257 0.69443697 0.28511086 4288256409
0.15955418 0.71825033 0.26883924 4288256409
0.26299623 0.8282426 0.31070137 4293138972
0.26595232 0.82976377 0.26597565 4293138972
0.10961577 0.67297918 0.27884099 4288256409
0.097529747 0.67056102 0.26340377 4288256409
0.17404687 0.72636533 0.2924988 4288256409
0.19117616 0.74229819 0.29521611 4288256409
0.1548627 0.71468693 0.26888171 4288256409
0.16064182 0.72110331 0.27237296 4288256409
0.15191516 0.71233654 0.26491708 4288256409
0.15697402 0.71629751 0.26534155 4288256409
0.16664979 0.72471023 0.2711162 4288256409
0.21364515 0.7575593 0.29905838 4288256409
0.16346727 0.72280258 0.269768 4288256409
0.18094222 0.73925239 0.28482005 4288256409
0.2542322 0.81588876 0.33314356 4293138972
0.30039817 0.83819592 0.33034092 4293138972
0.16405913 0.72288495 0.2725431 4288256409
0.18438886 0.73958158 0.27749619 4288256409
0.18756506 0.7429722 0.27943864 4288256409
0.15598126 0.70871717 0.28478685 4288256409
0.254682 0.81810272 0.32265612 4293138972
0.20076764 0.74323624 0.29065594 4288256409
0.061172016 0.63729846 0.26293188 4288256409
0.13556515 0.69942695 0.26524666 4288256409
0.13985752 0.70328999 0.2635133 4288256409
0.25357318 0.81650221 0.33103946 4293138972
0.25506437 0.81656337 0.3014234 4293138972
0.062848106 0.63645607 0.26453614 4288256409
0.15771276 0.71301526 0.2892375 4288256409
0.13321212 0.69817984 0.26176706 4288256409
0.1514069 0.7115525 0.26729947 4288256409
0.21627153 0.76044482 0.27721301 4288256409
0.25421488 0.81837827 0.3170045 4293138972
0.25805372 0.82197601 0.3032538 4293138972
0.30707747 0.83585799 0.320317 4293138972
0.067866303 0.64203745 0.26534876 4288256409
0.12099566 0.68434823 0.28103992 4288256409
0.17246662 0.7252273 0.2937752 4288256409
0.14838107 0.71043712 0.26437759 4288256409
0.17693815 0.73350483 0.2720907 4288256409
0.25856072 0.82199192 0.32477188 4293138972
0.2576687 0.82154524 0.29029295 4293138972
0.25857446 0.82255191 0.28771621 4293138972
0.14906891 0.71015972 0.26586077 4288256409
0.23825614 0.77707314 0.30413339 4288256409
0.066853739 0.64019275 0.26578999 4288256409
0.10100438 0.66657746 0.27848637 4288256409
0.15768418 0.71660513 0.26726106 4288256409
0.15983981 0.71262205 0.28704229 4288256409
0.11987509 0.68787438 0.26346776 4288256409
0.17201982 0.72353858 0.29228494 4288256409
0.14515577 0.70776129 0.26545832 4288256409
0.1486783 0.71081018 0.26811671 4288256409
0.15124613 0.71290094 0.27020586 4288256409
0.15538292 0.71642804 0.27259639 4288256409
0.16072699 0.71832204 0.27055013 4288256409
0.15446383 0.70802653 0.28295502 4288256409
0.18359089 0.73698568 0.27234292 4288256409
0.17584807 0.72649199 0.28850564 4288256409
0.29894307 0.83957863 0.32750359 4293138972
0.30211827 0.84334415 0.29604289 4293138972
0.16487315 0.71915281 0.29132652 4288256409
0.16010714 0.71011102 0.27661094 4288256409
0.20750859 0.75151396 0.27261838 4288256409
0.13715734 0.69519752 0.28087607 4288256409
0.1434817 0.69899416 0.26858634 4288256409
0.25642255 0.79964924 0.3005527 4293138972
0.1860906 0.74069959 0.27889836 4288256409
0.17220448 0.71685058 0.27953723 4288256409
0.073697396 0.64166296 0.27141994 4288256409
0.076550953 0.6439808 0.27208418 4288256409
0.16180375 0.71687174 0.29223731 4288256409
0.16809659 0.72073263 0.29191509 4288256409
0.17157465 0.72225666 0.2919192 4288256409
0.15821081 0.71719605 0.26516435 4288256409
0.19672225 0.74283314 0.27135536 4288256409
0.20350847 0.75430375 0.27697155 4288256409
0.25377125 0.81712228 0.3147046 4293138972
0.06596294 0.63575011 0.26926801 4288256409
0.072313733 0.64142776 0.27012661 4288256409
0.078172982 0.6451115 0.27316681 4288256409
0.19540299 0.74596959 0.28377795 4288256409
0.17989995 0.72764796 0.28781387 4288256409
0.17458788 0.72450912 0.29410541 4288256409
0.070962794 0.63804191 0.27073631 4288256409
0.13310315 0.69347733 0.28308824 4288256409
0.16428843 0.71699739 0.29234996 4288256409
0.16728942 0.71899164 0.29332459 4288256409
0.16735449 0.71955359 0.29112756 4288256409
0.16089562 0.71485859 0.2916618 4288256409
0.14677085 0.7027871 0.2815443 4288256409
0.25469774 0.81544596 0.3380073 4293138972
0.30763429 0.84203976 0.28121093 4293138972
0.17603411 0.73259169 0.27222183 4288256409
0.17119095 0.71759963 0.28293616 4288256409
0.25737813 0.81981409 0.32499605 4293138972
0.2543104 0.79442197 0.30830947 4293138972
0.16341437 0.72162694 0.27031258 4288256409
0.1966988 0.75138843 0.28428552 4288256409
0.27070966 0.83582425 0.31784225 4293138972
0.11937445 0.68238163 0.28088641 4288256409
0.16212045 0.71351635 0.28929523 4288256409
0.1628757 0.715321 0.29229131 4288256409
0.13915607 0.70154566 0.26382193 4288256409
0.16311307 0.72254026 0.2756896 4288256409
0.25255287 0.78957093 0.30861875 4293138972
0.25143901 0.78732139 0.28174484 4293138972
0.27074656 0.83610535 0.29088342 4293138972
0.12773979 0.68620747 0.28363806 4288256409
0.12926102 0.68835676 0.28402099 4288256409
0.13279282 0.6887821 0.28353027 4288256409
0.15788932 0.71167213 0.2903707 4288256409
0.12917519 0.69250852 0.27685484 4288256409
0.12267896 0.68371588 0.28201741 4288256409
0.12630208 0.68470877 0.28365898 4288256409
0.14683011 0.70383638 0.28753474 4288256409
0.14933015 0.70487374 0.28771466 4288256409
0.13659133 0.69993132 0.26260525 4288256409
0.25501966 0.8168869 0.31530431 4293138972
0.2537736 0.7888968 0.28100446 4293138972
0.2696749 0.83560544 0.3055988 4293138972
0.084339894 0.65261358 0.27326211 4288256409
0.15532182 0.71025038 0.29124409 4288256409
0.13245693 0.69763452 0.26239377 4288256409
0.25479448 0.81586683 0.3350994 4293138972
0.25953311 0.82246017 0.29383436 4293138972
0.30176115 0.84607428 0.26961398 4293138972
0.11580831 0.67692775 0.28070042 4288256409
0.12133753 0.68236536 0.28197771 4288256409
0.10006527 0.66445303 0.27663615 4288256409
0.10277946 0.66539788 0.27747336 4288256409
0.15576656 0.70834905 0.29063126 4288256409
0.14619872 0.70943093 0.26493761 4288256409
0.13972092 0.69549662 0.27758652 4288256409
0.25370795 0.81284744 0.33248219 4293138972
0.2566686 0.81700391 0.3277939 4293138972
0.25945106 0.82330924 0.28165326 4293138972
0.16999134 0.72017455 0.29246384 4288256409
0.20798041 0.7563265 0.27735481 4288256409
0.27240744 0.83822608 0.26932925 4293138972
0.29430351 0.83750397 0.34796575 4293138972
0.081690393 0.64832598 0.27281404 4288256409
0.12297133 0.68931705 0.26284385 4288256409
0.14296956 0.70589608 0.26804337 4288256409
0.19928959 0.750498 0.27668917 4288256409
0.081617244 0.64737648 0.27469152 4288256409
0.25566003 0.8177166 0.3060233 4293138972
0.16580603 0.71692568 0.26117507 4288256409
0.071700051 0.63736421 0.27154073 4288256409
0.098471023 0.66385919 0.27707681 4288256409
0.14109558 0.69830489 0.28797129 4288256409
0.22943574 0.77013201 0.30285659 4288256409
0.26023781 0.82453752 0.34509838 4293138972
0.26494688 0.8306188 0.31591573 4293138972
0.30074665 0.8464027 0.26746824 4293138972
0.16487658 0.72305334 0.26943058 4288256409
0.09713982 0.66164851 0.27663285 4288256409
0.14171854 0.69532877 0.28559336 4288256409
0.14323615 0.69845307 0.28754473 4288256409
0.14596847 0.69975162 0.2886717 4288256409
0.14975394 0.70283782 0.28974128 4288256409
0.10120127 0.66376197 0.27764043 4288256409
0.15451609 0.70701927 0.29003066 4288256409
0.21901472 0.76345724 0.27783814 4288256409
0.30083168 0.83605057 0.3397342 4293138972
0.15346001 0.70583522 0.29091489 4288256409
0.25648129 0.81186831 0.33757785 4293138972
0.25378823 0.79273045 0.3076036 4293138972
0.25813887 0.79874921 0.28874764 4293138972
0.13621685 0.69356561 0.28658524 4288256409
0.17946841 0.73481172 0.27321512 4288256409
0.17767797 0.71661305 0.27240708 4288256409
0.19733892 0.7494294 0.2949146 4288256409
0.25423694 0.79163784 0.30920178 4293138972
0.25658399 0.81840199 0.29581803 4293138972
0.29738808 0.84631848 0.28596076 4293138972
0.2048566 0.75675106 0.28670064 4288256409
0.091857649 0.65610391 0.27549011 4288256409
0.10734853 0.66968381 0.27882007 4288256409
0.25629377 0.81444573 0.32630897 4293138972
0.30332369 0.83371073 0.34054777 4293138972
0.25797045 0.79899037 0.29517314 4293138972
0.13449694 0.69242793 0.28576782 4288256409
0.29586706 0.84452224 0.30521533 4293138972
0.29776335 0.84662861 0.28216887 4293138972
0.25754592 0.81988901 0.28535628 4293138972
0.25720564 0.81913126 0.29133457 4293138972
0.1518696 0.70439208 0.29012427 4288256409
0.13116591 0.69748431 0.26656637 4288256409
0.17926922 0.73358983 0.27078363 4288256409
0.29805788 0.84479141 0.31066123 4293138972
0.1753903 0.73004764 0.27010992 4288256409
0.29286835 0.84259886 0.32385308 4293138972
0.19791609 0.74989605 0.27612022 4288256409
0.29906869 0.84728038 0.26382181 4293138972
0.11153302 0.68052834 0.27169394 4288256409
0.14763153 0.70043194 0.28963956 4288256409
0.1953823 0.7367928 0.28298253 4288256409
0.25646126 0.81741935 0.29319122 4293138972
0.14505628 0.69860959 0.28851771 4288256409
0.25860426 0.81835312 0.29245925 4293138972
0.29923475 0.84705532 0.26661426 4293138972
0.12234369 0.68066806 0.28236395 4288256409
0.25891536 0.81722158 0.28651011 4293138972
0.2954604 0.8432852 0.31507865 4293138972
0.26388898 0.82776523 0.26302168 4293138972
0.096777104 0.65928578 0.2766605 4288256409
0.12081886 0.67900211 0.28231329 4288256409
0.12986076 0.68706626 0.28500146 4288256409
0.19728017 0.74129444 0.28986356 4288256409
0.12518996 0.68189329 0.28337845 4288256409
0.1338837 0.69126409 0.28639114 4288256409
0.28761518 0.84166777 0.34246513 4293138972
0.29290834 0.84387302 0.31978953 4293138972
0.25850418 0.81697541 0.29198697 4293138972
0.2583414 0.81519651 0.28786674 4293138972
0.2584632 0.81862599 0.29566607 4293138972
0.2739993 0.83826697 0.26196337 4293138972
0.14369677 0.70618993 0.26527482 4288256409
0.13296176 0.69157749 0.27841285 4288256409
0.31080273 0.83469647 0.31999636 4293138972
0.25892675 0.81736606 0.2889331 4293138972
0.14693277 0.70977437 0.26708445 4288256409
0.25770819 0.81383574 0.2890135 4293138972
0.11819453 0.67924738 0.28208813 4288256409
0.1824958 0.7295053 0.29718733 4288256409
0.1927896 0.74697644 0.2768805 4288256409
0.29999009 0.81899804 0.35456216 4293138972
0.20145285 0.7525816 0.29576489 4288256409
0.29691061 0.84511584 0.29863968 4293138972
0.11501548 0.67544848 0.28015536 4288256409
0.25959799 0.82248235 0.28277951 4293138972
0.30425045 0.81680214 0.34557295 4293138972
0.11926775 0.67791426 0.28233132 4288256409
0.21189231 0.74168366 0.26984984 4288256409
0.25784796 0.82109815 0.27842242 4293138972
0.090377755 0.65500605 0.27585754 4288256409
0.2556743 0.80743825 0.33708212 4293138972
0.25250858 0.81496423 0.32983187 4293138972
0.25608286 0.81371748 0.33360788 4293138972
0.25307164 0.81234157 0.33467358 4293138972
0.25495288 0.81717199 0.32093108 4293138972
0.3047843 0.8404935 0.31004471 4293138972
0.11491875 0.67482805 0.28147486 4288256409
0.28484902 0.84032339 0.33394587 4293138972
0.25850308 0.82025683 0.27843103 4293138972
0.26476088 0.8271814 0.26325941 4293138972
0.2986095 0.84680319 0.27646518 4293138972
0.11209794 0.67401475 0.2806178 4288256409
0.25824901 0.81845689 0.27312696 4293138972
0.11060958 0.67303902 0.2809203 4288256409
0.25420898 0.81064409 0.33572364 4293138972
0.069340006 0.63868129 0.27072981 4288256409
0.19670367 0.73599404 0.2837953 4288256409
0.2622751 0.82588947 0.26952118 4293138972
0.077539973 0.64324856 0.2734035 4288256409
0.24531229 0.78173441 0.30620003 4288256409
0.26132607 0.82135439 0.2678178 4293138972
0.26229769 0.82447344 0.2682775 4293138972
0.26282936 0.82606357 0.26687068 4293138972
0.18147801 0.72614861 0.28365883 4288256409
0.25827292 0.82079482 0.3067365 4293138972
0.087726876 0.65262091 0.27610993 4288256409
0.11381646 0.6733849 0.28130677 4288256409
0.22202766 0.76267767 0.30212697 4288256409
0.25506404 0.80886054 0.335419 4293138972
0.26253748 0.82479274 0.26384374 4293138972
0.085748866 0.6514886 0.27602544 4288256409
0.11125081 0.67154425 0.28038636 4288256409
0.25508013 0.79735178 0.30770946 4293138972
0.25689995 0.81791729 0.32044196 4293138972
0.18793385 0.73761314 0.27094921 4288256409
0.18778211 0.74227291 0.27588242 4288256409
0.29108179 0.8434822 0.32720539 4293138972
0.29075569 0.84288156 0.33098626 4293138972
0.085414931 0.64975792 0.27577844 4288256409
0.18815917 0.74101949 0.27411857 4288256409
0.29643008 0.84813923 0.27488402 4293138972
0.070235059 0.63643944 0.27241594 4288256409
0.28971094 0.8425557 0.33448392 4293138972
0.28838259 0.84292018 0.33267698 4293138972
0.25823283 0.80686146 0.34235251 4293138972
0.25678906 0.80864161 0.34028751 4293138972
0.25800943 0.80952269 0.34220222 4293138972
0.28717726 0.84276277 0.33833346 4293138972
0.10997 0.67032772 0.28056476 4288256409
0.29077941 0.8445586 0.32053864 4293138972
0.29489332 0.84721744 0.29092178 4293138972
0.29453337 0.84752941 0.28960064 4293138972
0.196476 0.74428022 0.29286489 4288256409
0.29463947 0.84608048 0.30177388 4293138972
0.20197172 0.74755251 0.29235992 4288256409
0.29593998 0.84778017 0.27885205 4293138972
0.29626235 0.84822315 0.2683208 4293138972
0.20942162 0.75684327 0.29609758 4288256409
0.25725365 0.81725448 0.27732298 4293138972
0.19492814 0.73964751 0.26946214 4288256409
0.25664455 0.81676632 0.31526121 4293138972
0.22449107 0.76573664 0.3031863 4288256409
0.20461179 0.74865443 0.29277995 4288256409
0.10760153 0.66840667 0.28010601 4288256409
0.11323299 0.67177522 0.28123394 4288256409
0.1750071 0.73119307 0.28547344 4288256409
0.19063689 0.74151295 0.27271619 4288256409
0.17857626 0.72825587 0.29061306 4288256409
0.25802872 0.81964606 0.30827969 4293138972
0.25168842 0.81342357 0.32182464 4293138972
0.1818653 0.7276879 0.26458773 4288256409
0.29069629 0.8457042 0.3137826 4293138972
0.2620008 0.82428312 0.26191622 4293138972
0.25510886 0.80103987 0.29761732 4293138972
0.25742382 0.81818199 0.31027496 4293138972
0.25309876 0.8141486 0.31107387 4293138972
0.23244819 0.77342665 0.30567583 4288256409
0.25611866 0.81063855 0.32754073 4293138972
0.25737116 0.8168503 0.31205276 4293138972
0.28741246 0.84355837 0.32968479 4293138972
0.25630707 0.81802016 0.26052135 4293138972
0.2575615 0.81813782 0.30326357 4293138972
0.10940048 0.66799361 0.28103957 4288256409
0.25545147 0.80630457 0.33881626 4293138972
0.25675514 0.80724293 0.34080625 4293138972
0.29387712 0.82264221 0.36036453 4293138972
0.29515979 0.81597513 0.36031792 4293138972
0.29239014 0.84748989 0.29520234 4293138972
0.20030759 0.74034846 0.29015315 4288256409
0.2563307 0.79954225 0.28768465 4293138972
0.25656059 0.81070399 0.26306671 4293138972
0.14659251 0.6998471 0.2908504 4288256409
0.22464119 0.76485008 0.30595395 4288256409
0.25225458 0.81011647 0.33075917 4293138972
0.25909129 0.80619067 0.34396109 4293138972
0.23117909 0.77106202 0.3049953 4288256409
0.12033655 0.67770034 0.28328481 4288256409
0.29397312 0.84887338 0.2714791 4293138972
0.075829506 0.64143455 0.27480131 4288256409
0.25234002 0.80714381 0.32764599 4293138972
0.10700902 0.66691649 0.27966794 4288256409
0.28788811 0.84474838 0.32395446 4293138972
0.23350129 0.77223015 0.30548429 4288256409
0.10002332 0.66813803 0.26000962 4288256409
0.25863963 0.80411518 0.34337577 4293138972
0.080313452 0.65249431 0.26361051 4288256409
0.26077628 0.80459982 0.34535646 4293138972
0.2537075 0.80713207 0.33075851 4293138972
0.25637919 0.81442875 0.32084408 4293138972
0.25574377 0.81649798 0.28517509 4293138972
0.2571598 0.80556452 0.34151384 4293138972
0.073515572 0.63900334 0.27403361 4288256409
0.068273686 0.63749504 0.27097121 4288256409
0.13207121 0.69079274 0.28717682 4288256409
0.29330492 0.84832799 0.28137451 4293138972
0.068720363 0.6360935 0.27224597 4288256409
0.2563501 0.81119633 0.3227886 4293138972
0.2563538 0.81156951 0.32049766 4293138972
0.2574282 0.81626451 0.28525692 4293138972
0.17788504 0.72215247 0.28613496 4288256409
0.10497408 0.66675895 0.27997044 4288256409
0.25616533 0.8047421 0.34019464 4293138972
0.25732422 0.80456746 0.34205562 4293138972
0.25743505 0.80308336 0.29782078 4293138972
0.25177795 0.78851807 0.31229544 4293138972
0.25482836 0.80322188 0.33752725 4293138972
0.25732663 0.81750607 0.30542916 4293138972
0.26048487 0.81546259 0.26798505 4293138972
0.072277397 0.63795477 0.27335158 4288256409
0.25315389 0.8057223 0.32753816 4293138972
0.26020846 0.80256742 0.34465504 4293138972
0.25708127 0.80260521 0.30249202 4293138972
0.29471934 0.84716833 0.29681817 4293138972
0.2537342 0.80618143 0.33679134 4293138972
0.2568638 0.80173993 0.30506226 4293138972
0.25355995 0.80172521 0.30499172 4293138972
0.066828981 0.63666219 0.27160212 4288256409
0.28730538 0.84409344 0.326561 4293138972
0.25501049 0.80611724 0.33258939 4293138972
0.25639501 0.80495363 0.32177651 4293138972
0.25791317 0.81533402 0.29224527 4293138972
0.25348157 0.80491424 0.32845753 4293138972
0.18090959 0.72552693 0.28536662 4288256409
0.20806862 0.74717027 0.29075891 4288256409
0.17070428 0.71863145 0.28569916 4288256409
0.25656614 0.81567174 0.31851321 4293138972
0.25759113 0.80494827 0.29610556 4293138972
0.2572217 0.81468624 0.30036321 4293138972
0.25720659 0.81002784 0.29972658 4293138972
0.25702623 0.81378531 0.30391902 4293138972
0.25926542 0.81804055 0.2819005 4293138972
0.25966781 0.81760174 0.27219036 4293138972
0.2930609 0.84844953 0.2856023 4293138972
0.25676879 0.80618995 0.31984964 4293138972
0.25653023 0.81342858 0.31535834 4293138972
0.25706115 0.81435925 0.30677226 4293138972
0.2857109 0.8432104 0.33501107 4293138972
0.2544347 0.79947925 0.28747061 4293138972
0.25764599 0.81638098 0.29498169 4293138972
0.28766686 0.84495848 0.31957111 4293138972
0.25721404 0.80325204 0.29271203 4293138972
0.25856832 0.81582117 0.28399843 4293138972
0.29047528 0.84725189 0.29555437 4293138972
0.25585699 0.8026337 0.33958709 4293138972
0.25244901 0.81231445 0.31458241 4293138972
0.2691597 0.79247326 0.26815936 4293138972
0.21130952 0.75453275 0.29651195 4288256409
0.29295427 0.80944788 0.35770863 4293138972
0.25559738 0.79583567 0.31246972 4293138972
0.25751773 0.80686545 0.29454747 4293138972
0.2574513 0.81647074 0.29953638 4293138972
0.25939831 0.81532604 0.27598876 4293138972
0.26022029 0.818492 0.26909831 4293138972
0.25484321 0.80492556 0.33754358 4293138972
0.25896901 0.81576437 0.28118882 4293138972
0.25319907 0.802396 0.33126247 4293138972
0.25745797 0.81364775 0.29538634 4293138972
0.24203102 0.77908295 0.30765659 4288256409
0.25719556 0.8097558 0.29394528 4293138972
0.26210737 0.80868971 0.27550399 4293138972
0.2574321 0.81282222 0.29022318 4293138972
0.25771582 0.81339383 0.28247404 4293138972
0.25592393 0.80075222 0.30870095 4293138972
0.25769106 0.81357312 0.2853539 4293138972
0.25809085 0.80174363 0.32024801 4293138972
0.25739369 0.81260228 0.29238203 4293138972
0.25971648 0.81204605 0.27117214 4293138972
0.2569457 0.80735946 0.3178854 4293138972
0.26091081 0.81282288 0.27193767 4293138972
0.19500506 0.73825961 0.28736243 4288256409
0.26149616 0.82063055 0.26505473 4293138972
0.26166195 0.82190317 0.26114047 4293138972
0.26123083 0.8180989 0.26491874 4293138972
0.29586411 0.80949533 0.35843709 4293138972
0.29360947 0.81224293 0.35773894 4293138972
0.11080796 0.67757499 0.27466595 4288256409
0.25225446 0.80982131 0.32208252 4293138972
0.20417486 0.75128007 0.29450098 4288256409
0.25849578 0.81650972 0.26238376 4293138972
0.25366333 0.80045897 0.3226454 4293138972
0.19140656 0.73007035 0.28111327 4288256409
0.25434038 0.81369495 0.3026408 4293138972
0.25647929 0.79928857 0.31414476 4293138972
0.29117092 0.84791297 0.29206046 4293138972
0.29102868 0.8469286 0.30716771 4293138972
0.2560091 0.7983703 0.31174171 4293138972
0.25658786 0.81360465 0.3124679 4293138972
0.25513503 0.79293066 0.31611222 4293138972
0.25654301 0.79506356 0.31646934 4293138972
0.25705114 0.81368452 0.30986425 4293138972
0.28545097 0.84371096 0.33345386 4293138972
0.29049748 0.84860903 0.27859297 4293138972
0.26167768 0.81951797 0.26104736 4293138972
0.11778224 0.67925674 0.26436412 4288256409
0.2155133 0.74256319 0.26781774 4288256409
0.20886989 0.74838877 0.29125264 4288256409
0.19327395 0.73951715 0.29081941 4288256409
0.1584862 0.71101826 0.29397053 4288256409
0.25749487 0.80292684 0.31575501 4293138972
0.26106134 0.81650281 0.26157486 4293138972
0.29964212 0.84855556 0.26254708 4293138972
0.18732615 0.73345011 0.29885995 4288256409
0.11816831 0.68213719 0.27553126 4288256409
0.25334683 0.80005866 0.32791665 4293138972
0.12533019 0.686207 0.2650623 4288256409
0.20531164 0.75614768 0.29727292 4288256409
0.21214582 0.75516266 0.29517743 4288256409
0.29215792 0.84883088 0.27170727 4293138972
0.26173413 0.81365627 0.26859751 4293138972
0.29146451 0.84828746 0.28172868 4293138972
0.23353101 0.77023512 0.30492815 4288256409
0.24916764 0.78572828 0.31098628 4288256409
0.1642461 0.71376336 0.29548419 4288256409
0.28918326 0.84760857 0.2935077 4293138972
0.25708771 0.81063294 0.30233377 4293138972
0.25752798 0.80991721 0.30643103 4293138972
0.25584501 0.80309063 0.31123677 4293138972
0.25695762 0.80991507 0.31295788 4293138972
0.28487036 0.84464878 0.3297388 4293138972
0.25691351 0.80855918 0.31548351 4293138972
0.25706342 0.79909933 0.32013378 4293138972
0.25501502 0.79843593 0.31889817 4293138972
0.2551688 0.80311137 0.31711304 4293138972
0.13106576 0.68692654 0.2869153 4288256409
0.15186845 0.70472544 0.29374647 4288256409
0.25371954 0.80568701 0.30602136 4293138972
0.095888361 0.65887636 0.27828026 4288256409
0.13416126 0.69321305 0.28057504 4288256409
0.10314786 0.66973132 0.26722702 4288256409
0.26211357 0.79802418 0.34608075 4293138972
0.28902343 0.80351949 0.35437828 4293138972
0.26026362 0.799909 0.34472215 4293138972
0.26307294 0.80337852 0.34760422 4293138972
0.25710392 0.80266804 0.34185037 4293138972
0.15786253 0.70757717 0.29335612 4288256409
0.26433554 0.80011463 0.34777582 4293138972
0.29303548 0.80643857 0.35709459 4293138972
0.2602326 0.79616302 0.3452639 4293138972
0.2645306 0.79759669 0.34766036 4293138972
0.25823331 0.79783189 0.34369284 4293138972
0.25858149 0.80130482 0.34343034 4293138972
0.233665 0.76864129 0.30348203 4288256409
0.29475373 0.80172235 0.35843825 4293138972
0.18343459 0.72970134 0.29896873 4288256409
0.18585239 0.73238766 0.29998717 4288256409
0.26184535 0.81153333 0.26385748 4293138972
0.26202592 0.80153352 0.34641272 4293138972
0.10982215 0.6777454 0.26611593 4288256409
0.2401856 0.77539438 0.30546921 4288256409
0.26596126 0.79208231 0.27301189 4293138972
0.10094554 0.67147851 0.26007128 4288256409
0.29195219 0.80279684 0.35494182 4293138972
0.20617498 0.74404907 0.29014531 4288256409
0.28995037 0.80060804 0.35370904 4293138972
0.28960785 0.84847176 0.28074461 4293138972
0.2437983 0.77849507 0.30851817 4288256409
0.29247937 0.8486973 0.2686905 4293138972
0.29269001 0.7995404 0.35475525 4293138972
0.090439782 0.65282214 0.27575392 4288256409
0.29737899 0.80297297 0.35881639 4293138972
0.26667669 0.79905057 0.3496258 4293138972
0.13067476 0.69498855 0.2761347 4288256409
0.2528038 0.78930598 0.31433645 4293138972
0.25960052 0.80664933 0.26338512 4293138972
0.1670167 0.71702343 0.29601949 4288256409
0.24137889 0.77574581 0.30743018 4288256409
0.16346048 0.71262848 0.29643807 4288256409
0.27812812 0.79348564 0.348912 4293138972
0.2848033 0.79504406 0.35158068 4293138972
0.26806945 0.79406381 0.34947097 4293138972
0.29483443 0.80700386 0.35818166 4293138972
0.29231286 0.80357832 0.356738 4293138972
0.16890962 0.71610892 0.29578283 4288256409
0.17157786 0.71796876 0.29659498 4288256409
0.28175285 0.79480106 0.35034093 4293138972
0.28755099 0.79795015 0.35265142 4293138972
0.27252591 0.79861456 0.34921199 4293138972
0.2767553 0.80000991 0.34967998 4293138972
0.21854044 0.75727797 0.30181593 4288256409
0.12907462 0.6846602 0.28783149 4288256409
0.29737276 0.81143826 0.3594662 4293138972
0.29562044 0.81350487 0.35912505 4293138972
0.12537725 0.68148077 0.28690067 4288256409
0.20187424 0.74370897 0.30158415 4288256409
0.21624787 0.75733995 0.30690417 4288256409
0.11999603 0.67529714 0.28531626 4288256409
0.13836077 0.69299233 0.28998554 4288256409
0.29426783 0.81932461 0.36106002 4293138972
0.19489074 0.73154598 0.27975851 4288256409
0.1250096 0.67987949 0.28328988 4288256409
0.28180504 0.79200262 0.34983268 4293138972
0.28302994 0.7933355 0.3511261 4293138972
0.27928379 0.79609519 0.35006773 4293138972
0.24600114 0.78080022 0.31137127 4288256409
0.24622507 0.78202754 0.31295657 4288256409
0.25139979 0.78619069 0.31525406 4293138972
0.25335714 0.7885524 0.31648585 4293138972
0.28565669 0.84602135 0.322837 4293138972
0.18445365 0.72825867 0.29911402 4288256409
0.29782349 0.8076393 0.35969046 4293138972
0.2895467 0.79165381 0.35232878 4293138972
0.28752628 0.79427397 0.35261047 4293138972
0.25534105 0.80035251 0.33912084 4293138972
0.25559181 0.80157697 0.33259046 4293138972
0.10564293 0.66617423 0.28173366 4288256409
0.16769309 0.7156992 0.29764941 4288256409
0.25625399 0.80012709 0.3408803 4293138972
0.29203573 0.83090311 0.36093456 4293138972
0.25732133 0.79990619 0.3423726 4293138972
0.29075873 0.80721772 0.35611346 4293138972
0.096784107 0.66737998 0.27302983 4288256409
0.23773548 0.77570933 0.30078858 4288256409
0.28733745 0.79302412 0.35096493 4293138972
0.29379055 0.80034691 0.35655123 4293138972
0.29653901 0.79998153 0.35855761 4293138972
0.1012118 0.67187887 0.27199113 4288256409
0.25623232 0.79197526 0.31842753 4293138972
0.28041923 0.80120224 0.35191441 4293138972
0.2843326 0.80005878 0.3527244 4293138972
0.29615474 0.82480818 0.36118355 4293138972
0.2933836 0.82641625 0.3615455 4293138972
0.25706512 0.81209815 0.28604209 4293138972
0.29671913 0.82231218 0.36105251 4293138972
0.10012946 0.66080755 0.27892834 4288256409
0.0999965 0.66075313 0.28000921 4288256409
0.29082549 0.79672205 0.35361212 4293138972
0.29210618 0.79634655 0.3556318 4293138972
0.2940729 0.7977137 0.35686123 4293138972
0.17980462 0.72561014 0.29796523 4288256409
0.27612862 0.79645962 0.34865499 4293138972
0.26633841 0.79630339 0.34880587 4293138972
0.29989907 0.80960256 0.35986704 4293138972
0.29821664 0.81901985 0.36079088 4293138972
0.22598465 0.76379555 0.30307084 4288256409
0.22850302 0.76530039 0.30470407 4288256409
0.22690187 0.76307631 0.30698457 4288256409
0.084202029 0.64859146 0.27727175 4288256409
0.27491355 0.79387039 0.34685054 4293138972
0.29842615 0.81472617 0.3613019 4293138972
0.062337175 0.63769555 0.26907292 4288256409
0.099211313 0.65789896 0.27700412 4288256409
