# .PCD v0.7 - Point Cloud Data file format
VERSION 0.7
FIELDS x y z rgba
SIZE 4 4 4 4
TYPE F F F U
COUNT 1 1 1 1
WIDTH 1088
HEIGHT 1
VIEWPOINT 0 0 0 1 0 0 0
POINTS 1088
DATA ascii
0.10061095 0.66849488 0.29630312 4288256409
0.08882232 0.6567058 0.29469439 4288256409
0.28196153 0.81251895 0.36305371 4293138972
0.10790293 0.67576635 0.29770112 4288256409
0.16952802 0.73098505 0.30271035 4288256409
0.17236623 0.73405188 0.30306706 4288256409
0.24368036 0.81192464 0.31998324 4293138972
0.24362054 0.81328011 0.30027506 4293138972
0.16183178 0.72815591 0.30310547 4288256409
0.091546647 0.64446437 0.30204222 4288256409
0.16076659 0.72482061 0.30256331 4288256409
0.2813313 0.81116736 0.36136046 4293138972
0.19868603 0.76188219 0.30568483 4288256409
0.24531515 0.81160039 0.29561752 4293138972
0.19196078 0.75734526 0.30527186 4288256409
0.19478974 0.76368278 0.30755839 4288256409
0.14404018 0.71109867 0.30188403 4288256409
0.18052925 0.74428374 0.30374008 4288256409
0.27067441 0.80132663 0.3527275 4293138972
0.27530965 0.82633227 0.36295545 4293138972
0.24268712 0.81111163 0.31222683 4293138972
0.1968237 0.75935972 0.30533463 4288256409
0.10422589 0.67340398 0.29879662 4288256409
0.2498167 0.78960919 0.32033673 4293138972
0.24512184 0.80634707 0.33945268 4293138972
0.24411328 0.80808485 0.32389635 4293138972
0.18097314 0.74599218 0.3047671 4288256409
0.11427647 0.67909145 0.29970556 4288256409
0.12105241 0.6824441 0.29724827 4288256409
0.085400715 0.65085381 0.29721627 4288256409
0.093645439 0.65870851 0.29493114 4288256409
0.088073783 0.66218638 0.29960465 4288256409
0.09048003 0.66497266 0.29879531 4288256409
0.083703198 0.65350693 0.29606128 4288256409
0.088609047 0.65950739 0.29733315 4288256409
0.23185895 0.8006916 0.30781579 4288256409
0.16906436 0.74093258 0.30772778 4288256409
0.17436418 0.74511802 0.30681735 4288256409
0.15958995 0.73144227 0.3064425 4288256409
0.11943214 0.68899244 0.29939672 4288256409
0.12616038 0.69427025 0.30072647 4288256409
0.10357674 0.67146009 0.29891905 4288256409
0.11287662 0.68527526 0.3017264 4288256409
0.091234274 0.65582633 0.29764104 4288256409
0.10172512 0.66623795 0.29662824 4288256409
0.081898831 0.65074289 0.29515883 4288256409
0.08944878 0.65750128 0.29668227 4288256409
0.081804238 0.65600884 0.29837486 4288256409
0.1873599 0.74708587 0.30256006 4288256409
0.13647728 0.68208414 0.30192992 4288256409
0.17619714 0.74272168 0.30359408 4288256409
0.25090623 0.82657135 0.26226211 4293138972
0.16414709 0.73035377 0.30297634 4288256409
0.16462909 0.73323315 0.30436566 4288256409
0.1657542 0.73658359 0.30571246 4288256409
0.13971291 0.70721871 0.30106461 4288256409
0.14310966 0.70848 0.3002997 4288256409
0.12394639 0.68671918 0.29655319 4288256409
0.13323069 0.70270747 0.29982293 4288256409
0.10843847 0.67221057 0.29923794 4288256409
0.11828162 0.68157512 0.29445988 4288256409
0.23956254 0.78014523 0.31736675 4288256409
0.24625692 0.78908151 0.31877485 4293138972
0.10258057 0.66711664 0.29812393 4288256409
0.11011819 0.67755187 0.29816824 4288256409
0.23262785 0.77344763 0.31411901 4288256409
0.20685217 0.77543235 0.30822507 4288256409
0.18550004 0.74488127 0.30274892 4288256409
0.18507199 0.74823767 0.30542415 4288256409
0.12005585 0.68357182 0.29468378 4288256409
0.093121193 0.66109359 0.29685628 4288256409
0.095307581 0.66725707 0.29897246 4288256409
0.26770386 0.8302983 0.36124492 4293138972
0.089987196 0.64062691 0.30312797 4288256409
0.16920571 0.73411989 0.30312094 4288256409
0.11242288 0.66030771 0.30041742 4288256409
0.1353925 0.69994676 0.2987794 4288256409
0.089684606 0.64114505 0.30207962 4288256409
0.12128519 0.69152415 0.30028507 4288256409
0.081145234 0.64739114 0.29486373 4288256409
0.085302636 0.65845633 0.29733783 4288256409
0.24375348 0.80642718 0.30045176 4293138972
0.17153423 0.73737299 0.30376318 4288256409
0.14593989 0.70956171 0.30051723 4288256409
0.10745215 0.65230751 0.30116153 4288256409
0.081993006 0.64531398 0.29574066 4288256409
0.086327389 0.65282369 0.29612079 4288256409
0.25446314 0.79297441 0.3204149 4293138972
0.16478817 0.72519112 0.302551 4288256409
0.24402572 0.80849367 0.29988432 4293138972
0.089118436 0.65536302 0.29304522 4288256409
0.24429168 0.81070542 0.30253372 4293138972
0.22644094 0.79455149 0.30191144 4288256409
0.11441511 0.67692655 0.29803303 4288256409
0.25070766 0.79056859 0.32118958 4293138972
0.13386463 0.69493711 0.30011883 4288256409
0.086478978 0.64998132 0.29666436 4288256409
0.25695291 0.79314649 0.32400411 4293138972
0.24992597 0.78648973 0.31830737 4293138972
0.22187628 0.76117271 0.31437257 4288256409
0.23467846 0.80095279 0.30893353 4293138972
0.10051067 0.64273274 0.30169103 4288256409
0.088986516 0.65173423 0.29591995 4288256409
0.082456909 0.64293545 0.29685548 4288256409
0.15539765 0.7268163 0.30560151 4288256409
0.08514519 0.63853711 0.30084109 4288256409
0.1090519 0.67425895 0.2968888 4288256409
0.088374622 0.65422779 0.29684088 4288256409
0.11970656 0.68031198 0.29943338 4288256409
0.27487186 0.79880148 0.35140395 4293138972
0.25798133 0.79061717 0.32919991 4293138972
0.17526229 0.73618889 0.30278689 4288256409
0.11229719 0.65796262 0.30036271 4288256409
0.13059433 0.69390929 0.29886803 4288256409
0.27084675 0.79893792 0.35059187 4293138972
0.22740674 0.76455665 0.31344688 4288256409
0.11958045 0.67954737 0.29701316 4288256409
0.079307966 0.64584965 0.29229811 4288256409
0.084875248 0.64367217 0.30077738 4288256409
0.084844671 0.63874137 0.29764098 4288256409
0.091333069 0.6523937 0.29596037 4288256409
0.11869208 0.65962481 0.30268002 4288256409
0.23761684 0.77568167 0.31699565 4288256409
0.24577855 0.78294373 0.31548569 4288256409
0.08049497 0.64398897 0.29328009 4288256409
0.085742563 0.65217364 0.29295826 4288256409
0.20488466 0.74190742 0.31079173 4288256409
0.20871556 0.74491662 0.31148735 4288256409
0.083543546 0.64912462 0.29488337 4288256409
0.087753415 0.63789386 0.30114672 4288256409
0.27350575 0.80158281 0.3519249 4293138972
0.24227019 0.7783795 0.3195377 4288256409
0.21437857 0.75178999 0.31440064 4288256409
0.097144574 0.6395539 0.30108371 4288256409
0.089977942 0.63640863 0.30315545 4288256409
0.24131842 0.78404111 0.31688643 4288256409
0.08510787 0.63553828 0.29783058 4288256409
0.090194166 0.64382446 0.29944593 4288256409
0.28371483 0.8048107 0.35612091 4293138972
0.26670289 0.7977522 0.34952807 4293138972
0.28477648 0.81186885 0.36483574 4293138972
0.17819075 0.71745348 0.30700615 4288256409
0.166834 0.70312107 0.30551875 4288256409
0.28464893 0.80414271 0.36167169 4293138972
0.24856231 0.7844255 0.31829149 4293138972
0.18114103 0.7150358 0.30800727 4288256409
0.18357542 0.71739 0.30768549 4288256409
0.18432595 0.72090739 0.31047723 4288256409
0.17385849 0.70716971 0.31014997 4288256409
0.17802477 0.71415567 0.30687761 4288256409
0.17156558 0.70572728 0.30816296 4288256409
0.17315215 0.70956779 0.30647892 4288256409
0.11828747 0.65504503 0.30267778 4288256409
0.12174311 0.66067034 0.30248687 4288256409
0.11458094 0.65067446 0.30206919 4288256409
0.10156419 0.63960934 0.30277213 4288256409
0.086542621 0.63448048 0.30037156 4288256409
0.087672584 0.64028209 0.30048284 4288256409
0.28172073 0.80879521 0.36421552 4293138972
0.25183225 0.79939365 0.26015681 4293138972
0.17091621 0.70332611 0.30738539 4288256409
0.14974941 0.69139749 0.3034049 4288256409
0.10516981 0.63863957 0.30228314 4288256409
0.10295457 0.63765073 0.30176499 4288256409
0.099801175 0.63874722 0.30226484 4288256409
0.092965685 0.63571525 0.30267406 4288256409
0.25861192 0.78972179 0.3360011 4293138972
0.23505272 0.767573 0.31494212 4288256409
0.18112645 0.72075939 0.30725437 4288256409
0.1005149 0.63680226 0.30199832 4288256409
0.095273025 0.64075869 0.3004767 4288256409
0.085969158 0.63354123 0.29796889 4288256409
0.15336496 0.69146281 0.30329052 4288256409
0.10384487 0.64238828 0.30235836 4288256409
0.0898012 0.63344121 0.30196235 4288256409
0.25631788 0.78729731 0.31893286 4293138972
0.22095637 0.7542851 0.31266636 4288256409
0.13198595 0.67076319 0.30212006 4288256409
0.096880458 0.63727409 0.30182144 4288256409
0.09186516 0.63942105 0.30204695 4288256409
0.25062001 0.80272734 0.26409781 4293138972
0.15758938 0.69384825 0.30648717 4288256409
0.09745127 0.63502038 0.30243433 4288256409
0.096071772 0.64265913 0.29853311 4288256409
0.28244311 0.80140954 0.35517401 4293138972
0.27954954 0.79900479 0.35193816 4293138972
0.17802699 0.71120787 0.30757374 4288256409
0.13935998 0.67645693 0.30194929 4288256409
0.15158118 0.68973058 0.30389428 4288256409
0.21292572 0.75025141 0.31180692 4288256409
0.15438747 0.69342279 0.30486348 4288256409
0.15026169 0.6890685 0.30301932 4288256409
0.10829134 0.64578205 0.30210835 4288256409
0.2345507 0.77069896 0.31724533 4288256409
0.16104339 0.69742554 0.30454135 4288256409
0.23654431 0.77294725 0.31385127 4288256409
0.14254312 0.68200457 0.30296022 4288256409
0.10456231 0.64466578 0.30036953 4288256409
0.28377268 0.81326741 0.35455766 4293138972
0.10618259 0.64506906 0.30206212 4288256409
0.1024859 0.64602274 0.29962647 4288256409
0.088310741 0.63328904 0.29899925 4288256409
0.2467664 0.80950803 0.27773482 4293138972
0.25878808 0.78885347 0.31967083 4293138972
0.25358617 0.79618883 0.32348797 4293138972
0.24947114 0.79130316 0.31610662 4293138972
0.25001022 0.79338896 0.31996062 4293138972
0.20170741 0.73743635 0.30813178 4288256409
0.24971417 0.80831194 0.26325008 4293138972
0.19403389 0.72576559 0.30868772 4288256409
0.14826471 0.68747687 0.30285516 4288256409
0.16582042 0.72348672 0.29889765 4288256409
0.14152008 0.67960441 0.3021948 4288256409
0.25950083 0.78626329 0.32039136 4293138972
0.25289163 0.79232371 0.3160513 4293138972
0.082235716 0.64157736 0.28847685 4288256409
0.26786929 0.79455292 0.34825355 4293138972
0.25347596 0.79554188 0.32769111 4293138972
0.25126976 0.80875999 0.26611698 4293138972
0.18788552 0.72470218 0.30847818 4288256409
0.19080551 0.72983211 0.30825165 4288256409
0.25967932 0.79026383 0.32162574 4293138972
0.24967974 0.7807228 0.31541523 4288256409
0.21142569 0.74698371 0.31075057 4288256409
0.12958965 0.66761363 0.30083108 4288256409
0.24733758 0.79604548 0.32063791 4293138972
0.20595622 0.73770201 0.30989161 4288256409
0.17117253 0.70810139 0.3044748 4288256409
0.095588312 0.64504534 0.3014524 4288256409
0.1769418 0.7146036 0.30419672 4288256409
0.0902391 0.64857668 0.29399335 4288256409
0.25302422 0.79800189 0.33343616 4293138972
0.19951919 0.73335564 0.30728891 4288256409
0.18986566 0.72866982 0.30603549 4288256409
0.19228268 0.73365748 0.30740222 4288256409
0.19456232 0.73812878 0.30506295 4288256409
0.094693363 0.63922876 0.30041516 4288256409
0.25623909 0.79276949 0.3369731 4293138972
0.24941379 0.80435866 0.26100284 4293138972
0.14756851 0.6857757 0.30270275 4288256409
0.12433316 0.66456312 0.30249378 4288256409
0.22963667 0.77123618 0.31307027 4288256409
0.27615368 0.79671305 0.34962234 4293138972
0.23439091 0.76577085 0.31331858 4288256409
0.20198727 0.74382943 0.30932102 4288256409
0.14637712 0.68893915 0.30388382 4288256409
0.27052283 0.79417908 0.34932715 4293138972
0.2317349 0.77653039 0.31096438 4288256409
0.21245803 0.75477701 0.30841616 4288256409
0.11243049 0.65257406 0.30004573 4288256409
0.085129745 0.64443964 0.29530773 4288256409
0.088610336 0.65459442 0.29152647 4288256409
0.19676098 0.73508072 0.30737391 4288256409
0.27456594 0.8217575 0.35522121 4293138972
0.20827781 0.7498433 0.30806577 4288256409
0.12454038 0.66265422 0.30072939 4288256409
0.25386509 0.79469466 0.33816364 4293138972
0.22180772 0.76618296 0.31182289 4288256409
0.1920251 0.7344678 0.30643985 4288256409
0.16827232 0.70631576 0.30462092 4288256409
0.26045048 0.78736734 0.32440746 4293138972
0.22228409 0.77025944 0.30738565 4288256409
0.20471579 0.74967951 0.3073709 4288256409
0.25077319 0.79773003 0.3272571 4293138972
0.22161803 0.76460731 0.31037742 4288256409
0.2174243 0.765387 0.30949801 4288256409
0.18445548 0.72438407 0.30585039 4288256409
0.18722151 0.72691721 0.30542591 4288256409
0.18273036 0.7412805 0.29897359 4288256409
0.25232708 0.79721928 0.32883576 4293138972
0.17508535 0.71634209 0.30484352 4288256409
0.088537052 0.63156939 0.29884687 4288256409
0.2534987 0.79429585 0.32998398 4293138972
0.20556161 0.74037826 0.30876771 4288256409
0.24967709 0.8017357 0.32973912 4293138972
0.22843689 0.76246548 0.31302097 4288256409
0.24741457 0.80678552 0.26138154 4293138972
0.20025104 0.75894058 0.29976302 4288256409
0.17396109 0.71349293 0.30406314 4288256409
0.11010362 0.65143949 0.29991451 4288256409
0.10608266 0.64996427 0.2988646 4288256409
0.25220641 0.80011427 0.32325506 4293138972
0.12919755 0.6933701 0.29423079 4288256409
0.24975993 0.80140483 0.32613492 4293138972
0.24758844 0.80437988 0.32126167 4293138972
0.12017861 0.66372252 0.29966083 4288256409
0.10680788 0.64782852 0.30001795 4288256409
0.11115657 0.65045458 0.29992548 4288256409
0.22063816 0.75723493 0.31042352 4288256409
0.20136936 0.7494126 0.30636358 4288256409
0.21162991 0.75886577 0.30374673 4288256409
0.083457381 0.63707817 0.29144213 4288256409
0.266736 0.82755554 0.35282707 4293138972
0.22962233 0.77025717 0.3125495 4288256409
0.20204628 0.74130386 0.30685329 4288256409
0.18153913 0.7233808 0.30543196 4288256409
0.091445804 0.64041662 0.29814574 4288256409
0.081074998 0.63898098 0.28671163 4288256409
0.11516303 0.67499596 0.2940478 4288256409
0.25711429 0.79198599 0.33425009 4293138972
0.25264385 0.79786968 0.31917843 4293138972
0.24848652 0.80353397 0.32726318 4293138972
0.24864401 0.80060619 0.31797498 4293138972
0.20057453 0.74692279 0.30667076 4288256409
0.16008054 0.70268434 0.30291972 4288256409
0.11506756 0.65606606 0.29983285 4288256409
0.10850146 0.64917761 0.30003259 4288256409
0.11222651 0.65544844 0.29979658 4288256409
0.087263472 0.6502459 0.29202223 4288256409
0.082924448 0.63988024 0.28965893 4288256409
0.084161811 0.6448316 0.29007113 4288256409
0.21866328 0.76504499 0.30641499 4288256409
0.20516214 0.74616575 0.30888745 4288256409
0.20233564 0.74655175 0.30477861 4288256409
0.17316057 0.71759623 0.30220562 4288256409
0.16564634 0.70865917 0.30257747 4288256409
0.15450723 0.69623309 0.30120733 4288256409
0.11102194 0.64873368 0.30051839 4288256409
0.2542966 0.7941404 0.33532143 4293138972
0.24881659 0.80127889 0.32260907 4293138972
0.2502031 0.79509187 0.3129802 4293138972
0.19929272 0.74247837 0.30703238 4288256409
0.12720828 0.66852069 0.29993391 4288256409
0.090054162 0.6310696 0.29945999 4288256409
0.22369926 0.75846553 0.31117404 4288256409
0.22287409 0.76751685 0.31282172 4288256409
0.21326308 0.75587165 0.30915546 4288256409
0.16716474 0.70898926 0.30395019 4288256409
0.083995678 0.63641214 0.28875816 4288256409
0.16420574 0.72227091 0.29676858 4288256409
0.1075331 0.67035234 0.29216537 4288256409
0.092552006 0.63344824 0.29999104 4288256409
0.086981714 0.63173723 0.29547709 4288256409
0.24760078 0.79177892 0.30963895 4293138972
0.22494803 0.76943731 0.31291944 4288256409
0.19420286 0.73285681 0.30600458 4288256409
0.08450523 0.63451815 0.29020259 4288256409
0.24773058 0.81234539 0.28626648 4293138972
0.15826561 0.69992322 0.30250192 4288256409
0.08658538 0.63385046 0.29073495 4288256409
0.20031735 0.74133968 0.30548549 4288256409
0.20744829 0.76946127 0.29853895 4288256409
0.17140529 0.71369493 0.30377096 4288256409
0.25196561 0.79904842 0.33907077 4293138972
0.22991963 0.77985728 0.30839044 4288256409
0.22355971 0.77270603 0.30846542 4288256409
0.28149635 0.81792974 0.35368851 4293138972
0.25016838 0.80048203 0.3332822 4293138972
0.18808039 0.73042434 0.30361333 4288256409
0.14173625 0.70578855 0.29547265 4288256409
0.11519574 0.66001999 0.29906145 4288256409
0.21233015 0.75236481 0.30926108 4288256409
0.14253929 0.70379525 0.29641318 4288256409
0.13009168 0.67964029 0.29925352 4288256409
0.26651454 0.79965442 0.34969649 4293138972
0.26096123 0.78857327 0.33389646 4293138972
0.22212587 0.76948005 0.31010616 4288256409
0.12110217 0.6787138 0.29270303 4288256409
0.08207415 0.63713819 0.28689682 4288256409
0.24924226 0.7928952 0.31646827 4293138972
0.23188414 0.77711385 0.31310397 4288256409
0.13978545 0.68356937 0.30008981 4288256409
0.14046182 0.69667822 0.29471329 4288256409
0.1225391 0.68315434 0.28661239 4288256409
0.2594735 0.78872758 0.32710722 4293138972
0.20785528 0.75326747 0.30848897 4288256409
0.27186453 0.81837875 0.35331526 4293138972
0.2241296 0.77143037 0.31295186 4288256409
0.18272209 0.72243768 0.30453214 4288256409
0.17373739 0.72933495 0.29609019 4288256409
0.12377265 0.68560606 0.28675124 4288256409
0.25718096 0.79205412 0.33071908 4293138972
0.08525838 0.63687223 0.29205003 4288256409
0.082839094 0.64358085 0.28876212 4288256409
0.25659528 0.79306895 0.32730648 4293138972
0.22736375 0.77545172 0.31497392 4288256409
0.088607304 0.64434057 0.29414859 4288256409
0.27209404 0.79623342 0.35019773 4293138972
0.085153572 0.64682961 0.29020411 4288256409
0.25032815 0.79965466 0.31824517 4293138972
0.23114873 0.7801314 0.30937877 4288256409
0.24867924 0.80512059 0.2634598 4293138972
0.085074604 0.63389009 0.28425884 4288256409
0.082542114 0.63687307 0.28365922 4288256409
0.24648209 0.78704244 0.31130496 4288256409
0.18507089 0.72857982 0.30176345 4288256409
0.27304968 0.79262304 0.3490856 4293138972
0.24839638 0.81218976 0.34739345 4293138972
0.24906322 0.80207485 0.34018287 4293138972
0.26004076 0.78768617 0.32148495 4293138972
0.25895509 0.78670925 0.31786218 4293138972
0.24114139 0.78166622 0.31194958 4288256409
0.21896943 0.75744373 0.30999681 4288256409
0.25043797 0.81489474 0.26428235 4293138972
0.25160274 0.79682952 0.33746311 4293138972
0.25062603 0.80128831 0.33718663 4293138972
0.25139198 0.79852027 0.33164433 4293138972
0.24758111 0.80459356 0.33737531 4293138972
0.26098031 0.78554142 0.31854615 4293138972
0.24250071 0.80694479 0.30827332 4293138972
0.20971911 0.74324942 0.30824542 4288256409
0.083064094 0.63875467 0.28114274 4288256409
0.25376987 0.79397947 0.32015842 4293138972
0.2419772 0.78687274 0.31263447 4288256409
0.24334773 0.80930841 0.28292638 4293138972
0.25036809 0.81575543 0.27273664 4293138972
0.24526849 0.80629706 0.33240858 4293138972
0.25256717 0.79489279 0.33281192 4293138972
0.243001 0.78903985 0.30812582 4288256409
0.23181331 0.77491218 0.31372401 4288256409
0.22980389 0.77299553 0.31236506 4288256409
0.27533889 0.81154674 0.35143059 4293138972
0.25851026 0.79122835 0.33772835 4293138972
0.25894502 0.78974396 0.33263987 4293138972
0.24922188 0.7990787 0.32900614 4293138972
0.24901111 0.79467726 0.30809537 4293138972
0.086875804 0.63184792 0.28902161 4288256409
0.085918367 0.63208914 0.28673518 4288256409
0.24550144 0.81051165 0.34062204 4293138972
0.087570056 0.63081872 0.29164538 4288256409
0.084198818 0.63927537 0.29153508 4288256409
0.27837768 0.80898559 0.35152209 4293138972
0.25396749 0.80507398 0.34895355 4293138972
0.093759961 0.6327852 0.2995244 4288256409
0.088868469 0.63076192 0.29675665 4288256409
0.24699798 0.80468196 0.32493857 4293138972
0.25512955 0.78966987 0.31636298 4293138972
0.27297601 0.81646472 0.35249189 4293138972
0.26191917 0.81836098 0.3543188 4293138972
0.24227475 0.80590665 0.31726974 4293138972
0.093507983 0.63478386 0.29958007 4288256409
0.089449845 0.62920666 0.2954095 4288256409
0.27251402 0.80508256 0.3495743 4293138972
0.25256786 0.81643647 0.33830529 4293138972
0.2619316 0.78579086 0.32241276 4293138972
0.24351563 0.80540198 0.31932157 4293138972
0.11932633 0.66130835 0.29919165 4288256409
0.087737747 0.63076019 0.28275546 4288256409
0.28378618 0.81130421 0.3508755 4293138972
0.26414648 0.79543495 0.34748214 4293138972
0.2473326 0.80573231 0.33376461 4293138972
0.087179855 0.6431073 0.29279074 4288256409
0.086688794 0.63540465 0.29248896 4288256409
0.25164127 0.80032736 0.31459597 4293138972
0.24561676 0.80924392 0.28419811 4293138972
0.21631524 0.74936318 0.30947807 4288256409
0.14260328 0.68991578 0.30123749 4288256409
0.27535886 0.80939007 0.35108113 4293138972
0.26999342 0.79148614 0.34771994 4293138972
0.26480505 0.78697032 0.34222832 4293138972
0.26187506 0.78695208 0.33586267 4293138972
0.25807807 0.79127407 0.32514945 4293138972
0.24600592 0.80803627 0.29136252 4293138972
0.24960481 0.80989659 0.27393967 4293138972
0.090245925 0.63976556 0.29699242 4288256409
0.27724478 0.7926988 0.34825608 4293138972
0.26995379 0.78862947 0.34811842 4293138972
0.26173031 0.78698784 0.33108541 4293138972
0.2476892 0.80235589 0.32465014 4293138972
0.25758955 0.78719634 0.31577694 4293138972
0.25452909 0.8074134 0.34876156 4293138972
0.14975141 0.69793665 0.30232176 4288256409
0.24762025 0.80194169 0.3194609 4293138972
0.24886224 0.80289567 0.31465039 4293138972
0.24634463 0.80308926 0.31598958 4293138972
0.24787964 0.78464723 0.31200385 4288256409
0.24530657 0.80728865 0.28769743 4293138972
0.24617827 0.80753303 0.28167337 4293138972
0.087223537 0.63820106 0.29493684 4288256409
0.085281514 0.63803828 0.29320765 4288256409
0.083911844 0.63605553 0.28522611 4288256409
0.26170781 0.78659785 0.32630566 4293138972
0.26036838 0.78847593 0.32905096 4293138972
0.24879944 0.80398697 0.3333016 4293138972
0.26305231 0.7845673 0.31946421 4293138972
0.25173679 0.79644591 0.32300082 4293138972
0.25426155 0.79069257 0.31375217 4293138972
0.14756015 0.69353861 0.30034712 4288256409
0.093711399 0.6362505 0.29898602 4288256409
0.088880017 0.64176697 0.29464716 4288256409
0.090083443 0.63988006 0.26983023 4288256409
0.26629385 0.7875073 0.34647807 4293138972
0.21381037 0.74479264 0.30870277 4288256409
0.089092225 0.63887149 0.2956261 4288256409
0.27927589 0.79605138 0.34914705 4293138972
0.25492483 0.79014099 0.32065493 4293138972
0.12954809 0.68134433 0.29880717 4288256409
0.1164652 0.65391195 0.30036986 4288256409
0.095891863 0.63550854 0.30009648 4288256409
0.092253201 0.63869184 0.29851022 4288256409
0.087200426 0.63604766 0.29722834 4288256409
0.085936405 0.63281709 0.28102148 4288256409
0.26287425 0.78550315 0.33815515 4293138972
0.083147302 0.63616776 0.27822685 4288256409
0.27372652 0.78878111 0.34769568 4293138972
0.26646587 0.78531975 0.34425905 4293138972
0.26550663 0.78592914 0.33888224 4293138972
0.26263016 0.7856704 0.33327737 4293138972
0.26421887 0.78478569 0.3249833 4293138972
0.095072187 0.63783509 0.29945815 4288256409
0.090921432 0.62986851 0.29815784 4288256409
0.088220201 0.62976587 0.29365152 4288256409
0.25044271 0.80098873 0.34117886 4293138972
0.2678988 0.80026501 0.35126749 4293138972
0.24939488 0.80788571 0.33747923 4293138972
0.087987892 0.64300346 0.29549915 4288256409
0.24866489 0.807504 0.28327683 4293138972
0.24777353 0.80676734 0.27863663 4293138972
0.24922907 0.80844676 0.270854 4293138972
0.090753071 0.62684572 0.28740001 4288256409
0.24738373 0.80685377 0.28969553 4293138972
0.24943747 0.80512029 0.26622054 4293138972
0.26164415 0.78524345 0.31381506 4293138972
0.15635897 0.70252365 0.29962459 4288256409
0.090704478 0.62815613 0.29641223 4288256409
0.26161337 0.7844007 0.31668371 4293138972
0.26273227 0.79692262 0.34921038 4293138972
0.089288026 0.6287306 0.28228116 4288256409
0.24900669 0.80498952 0.2704502 4293138972
0.086857975 0.63147902 0.27835652 4288256409
0.27354077 0.80709821 0.35049635 4293138972
0.26972723 0.78657764 0.34694543 4293138972
0.26614699 0.78414977 0.3414264 4293138972
0.24807376 0.8055712 0.28152767 4293138972
0.24862036 0.80587333 0.27593595 4293138972
0.089305907 0.62858939 0.27806452 4288256409
0.087795503 0.63041484 0.28619424 4288256409
0.26432356 0.78478956 0.33474293 4293138972
0.26512223 0.78410256 0.32076967 4293138972
0.25842604 0.78503048 0.31306088 4293138972
0.090651408 0.63495499 0.2980544 4288256409
0.088393897 0.62928301 0.28820488 4288256409
0.084592931 0.63476276 0.28860092 4288256409
0.24930294 0.8058005 0.33868727 4293138972
0.25294012 0.79440719 0.32529542 4293138972
0.24473608 0.80494398 0.32171193 4293138972
0.12769383 0.66645008 0.29968324 4288256409
0.089945681 0.62713456 0.29263607 4288256409
0.08915858 0.62827939 0.29079735 4288256409
0.090250224 0.62736326 0.27969182 4288256409
0.085083328 0.63264805 0.27604532 4288256409
0.083893076 0.63436729 0.27831963 4288256409
0.26548871 0.78375477 0.3368172 4293138972
0.26696941 0.78313613 0.33277467 4293138972
0.26390097 0.78461462 0.32979497 4293138972
0.26550531 0.78302431 0.32844484 4293138972
0.26251024 0.78586942 0.32844692 4293138972
0.26599646 0.78324848 0.32362017 4293138972
0.24535373 0.80594647 0.30600408 4293138972
0.23240151 0.76269293 0.31194726 4288256409
0.22869359 0.75499696 0.31053844 4288256409
0.24902594 0.80367154 0.27433196 4293138972
0.25126615 0.80007178 0.26403624 4293138972
0.091408029 0.62653643 0.29448035 4288256409
0.090092838 0.64924657 0.28712276 4288256409
0.083832026 0.63580608 0.28059417 4288256409
0.26733389 0.78295428 0.33888218 4293138972
0.26715556 0.78196549 0.3256917 4293138972
0.24936898 0.80224305 0.27080861 4293138972
0.25359404 0.79866964 0.26110244 4293138972
0.13968207 0.67473799 0.30195373 4288256409
0.10299277 0.6411612 0.30000782 4288256409
0.090143278 0.63308501 0.29724827 4288256409
0.28132647 0.79325777 0.34860656 4293138972
0.1367888 0.67326814 0.3012515 4288256409
0.1353876 0.67422634 0.30093551 4288256409
0.12921022 0.66557413 0.3007111 4288256409
0.09111961 0.64029914 0.2997047 4288256409
0.0917399 0.6257813 0.28902069 4288256409
0.25098056 0.80021918 0.2679123 4293138972
0.25488707 0.81481439 0.33542329 4293138972
0.24815737 0.80563825 0.28681833 4293138972
0.24910437 0.80419159 0.27878612 4293138972
0.13817742 0.67289031 0.30197832 4288256409
0.098878406 0.6435799 0.29966289 4288256409
0.090737522 0.63716733 0.29721019 4288256409
0.092211872 0.62549579 0.29491356 4288256409
0.091139115 0.62631172 0.28176865 4288256409
0.24841417 0.8041175 0.28476596 4293138972
0.1429697 0.67849642 0.3023212 4288256409
0.090005249 0.62764412 0.2844187 4288256409
0.27739015 0.79045945 0.34842873 4293138972
0.24897349 0.80366665 0.33725369 4293138972
0.094957866 0.63428771 0.30014947 4288256409
0.24872078 0.8048718 0.34084693 4293138972
0.24987112 0.81065643 0.34526107 4293138972
0.091629304 0.6259262 0.2768051 4288256409
0.09260606 0.62472385 0.29122934 4288256409
0.086244658 0.63333595 0.28563836 4288256409
0.27612573 0.8025161 0.35204282 4293138972
0.2229287 0.75204039 0.31084904 4288256409
0.090193249 0.63795233 0.29631078 4288256409
0.092437737 0.62527066 0.28298485 4288256409
0.23458801 0.76102805 0.31184638 4288256409
0.14608334 0.68323123 0.30146903 4288256409
0.26865187 0.78509516 0.34571695 4293138972
0.25206214 0.794891 0.31983924 4293138972
0.26071045 0.78405678 0.31311291 4293138972
0.13106599 0.66956931 0.30071053 4288256409
0.092401333 0.62465709 0.28672758 4288256409
0.2675496 0.78211558 0.33554167 4293138972
0.2677893 0.78196245 0.33024389 4293138972
0.24968573 0.80171454 0.27586985 4293138972
0.25227869 0.79815143 0.26846033 4293138972
0.13150781 0.66773075 0.30102918 4288256409
0.097574674 0.64118034 0.2996628 4288256409
0.097213045 0.63485283 0.30039451 4288256409
0.2844092 0.79899126 0.34972855 4293138972
0.27896148 0.7889697 0.34841844 4293138972
0.27486455 0.78721941 0.347756 4293138972
0.27252549 0.78529751 0.34677866 4293138972
0.27036643 0.78362888 0.34497282 4293138972
0.26846427 0.78373528 0.34290725 4293138972
0.26836911 0.78139859 0.33869973 4293138972
0.26884818 0.78109092 0.33336797 4293138972
0.2672866 0.78127104 0.32338956 4293138972
0.26312062 0.78318888 0.31610098 4293138972
0.26328379 0.78292203 0.31254765 4293138972
0.23816039 0.76444268 0.31367469 4288256409
0.23357362 0.75881016 0.31194124 4288256409
0.22773373 0.75101429 0.3096725 4288256409
0.22610767 0.75757265 0.3113192 4288256409
0.22251667 0.74879009 0.30988133 4288256409
0.21790169 0.74703085 0.30906534 4288256409
0.21795131 0.74460828 0.30849516 4288256409
0.20761932 0.73515862 0.30722681 4288256409
0.15453106 0.68873239 0.30382383 4288256409
0.14192304 0.67601275 0.30227634 4288256409
0.13987082 0.67112625 0.30215985 4288256409
0.14002575 0.6727916 0.30248711 4288256409
0.12770246 0.66262072 0.30097139 4288256409
0.13126183 0.66636497 0.30074191 4288256409
0.11971075 0.6587531 0.30029553 4288256409
0.11858714 0.65217614 0.30088803 4288256409
0.11135587 0.64710563 0.30081508 4288256409
0.10605239 0.64201617 0.30092621 4288256409
0.10393331 0.64282358 0.30032751 4288256409
0.10022768 0.63470453 0.30063462 4288256409
0.094572753 0.63116133 0.30002871 4288256409
0.092525713 0.63056052 0.29904413 4288256409
0.090797924 0.64318073 0.29474524 4288256409
0.093280092 0.62446946 0.29569513 4288256409
0.092701577 0.62627345 0.29707712 4288256409
0.091120236 0.62806606 0.2979337 4288256409
0.093351625 0.62351608 0.29190671 4288256409
0.093847029 0.62290061 0.28546777 4288256409
0.087586768 0.63036746 0.27791283 4288256409
0.28697455 0.80812442 0.35127252 4293138972
0.2682955 0.78087187 0.32705307 4293138972
0.24875784 0.80242032 0.28220138 4293138972
0.25491747 0.79647672 0.26237181 4293138972
0.13308443 0.66808176 0.30108222 4288256409
0.097961731 0.63748401 0.29990923 4288256409
0.09243799 0.63929701 0.29916298 4288256409
0.092544794 0.62810379 0.29886118 4288256409
0.27249238 0.7830807 0.34568468 4293138972
0.26856011 0.78186053 0.34133351 4293138972
0.26922986 0.78064924 0.3368403 4293138972
0.26925135 0.78011972 0.32894605 4293138972
0.26600081 0.78282219 0.31815559 4293138972
0.26512295 0.78176492 0.31459057 4293138972
0.24217652 0.76913184 0.31300867 4288256409
0.22612657 0.74837619 0.30958614 4288256409
0.22111021 0.7467739 0.30918714 4288256409
0.19038631 0.72199047 0.30610031 4288256409
0.17753667 0.71014249 0.30492675 4288256409
0.16425119 0.69908071 0.30316696 4288256409
0.15420103 0.68502122 0.30311897 4288256409
0.14421624 0.67577612 0.30263913 4288256409
0.13266803 0.66634297 0.30148745 4288256409
0.10704508 0.64070415 0.30134037 4288256409
0.10789819 0.64251089 0.30141526 4288256409
0.10412938 0.64170462 0.29998803 4288256409
0.097925119 0.63334978 0.30069631 4288256409
0.094597779 0.62880147 0.2997281 4288256409
0.09492521 0.62468517 0.29706439 4288256409
0.094294608 0.62660539 0.29884377 4288256409
0.086939059 0.63371265 0.29310775 4288256409
0.27783868 0.8005538 0.35255828 4293138972
0.28287005 0.796179 0.34913078 4293138972
0.24877392 0.80200005 0.33510423 4293138972
0.25485104 0.78855389 0.31854838 4293138972
0.25518772 0.79420459 0.31668633 4293138972
0.14663412 0.68824804 0.30057362 4288256409
0.11838732 0.65435833 0.30100715 4288256409
0.099574976 0.63810146 0.3004826 4288256409
0.090999395 0.64221185 0.29454482 4288256409
0.28087789 0.80568081 0.35459736 4293138972
0.28135985 0.79117256 0.34922507 4293138972
0.23588938 0.76328772 0.31274521 4288256409
0.22802867 0.75309891 0.31068525 4288256409
0.21376844 0.74220431 0.30929899 4288256409
0.21066403 0.74068177 0.30808309 4288256409
0.14780164 0.69536412 0.30194542 4288256409
0.12067967 0.65420258 0.30146676 4288256409
0.11526243 0.66323894 0.2966522 4288256409
0.1105862 0.63952178 0.30168006 4288256409
0.10315467 0.6357311 0.30086133 4288256409
0.099459492 0.6347661 0.30061486 4288256409
0.097169839 0.63015765 0.30059049 4288256409
0.26761818 0.78088331 0.31606996 4293138972
0.25573349 0.78846097 0.31595698 4293138972
0.25015876 0.79940379 0.27602002 4293138972
0.13422488 0.68318224 0.2952354 4288256409
0.095227122 0.63820797 0.30070636 4288256409
0.2782287 0.78725517 0.34801787 4293138972
0.27286044 0.78137356 0.34493309 4293138972
0.26723602 0.78148955 0.32034302 4293138972
0.2370545 0.76110041 0.31319559 4288256409
0.23007452 0.7569654 0.31147635 4288256409
0.24767335 0.80991584 0.26378548 4293138972
0.18845397 0.71942693 0.30577826 4288256409
0.15702006 0.68952245 0.30418491 4288256409
0.15045281 0.68665469 0.30259365 4288256409
0.14629604 0.67973107 0.30208576 4288256409
0.12460906 0.65846604 0.30126071 4288256409
0.12080365 0.65259677 0.30170578 4288256409
0.12194942 0.65664732 0.30111393 4288256409
0.11810353 0.65008992 0.30109647 4288256409
0.095655307 0.62722981 0.2996076 4288256409
0.088018805 0.63566357 0.295026 4288256409
0.1482881 0.68022203 0.30314022 4288256409
0.10509945 0.65538329 0.30166015 4288256409
0.10668486 0.64435732 0.30054301 4288256409
0.10249981 0.65481561 0.29248554 4288256409
0.2843059 0.81118697 0.3531023 4293138972
0.28717142 0.80133927 0.3511247 4293138972
0.27504507 0.78478295 0.34753442 4293138972
0.20225284 0.73156351 0.30741838 4288256409
0.16155244 0.69401336 0.30352339 4288256409
0.13928705 0.68470627 0.30216533 4288256409
0.1283834 0.67717701 0.30259594 4288256409
0.1293025 0.6621688 0.30156225 4288256409
0.12275518 0.65444124 0.30190924 4288256409
0.12412582 0.66021472 0.30087307 4288256409
0.1190236 0.64918596 0.30140173 4288256409
0.11490903 0.64682126 0.30139503 4288256409
0.11170402 0.64564633 0.30124724 4288256409
0.098573849 0.63028044 0.30093601 4288256409
0.092824645 0.63650429 0.29864517 4288256409
0.091239117 0.64210403 0.2964662 4288256409
0.090595953 0.62609422 0.28558347 4288256409
0.083486997 0.63520348 0.28307009 4288256409
0.10476572 0.64060664 0.30087641 4288256409
0.1032721 0.65172911 0.29639333 4288256409
0.096949309 0.62861264 0.30040312 4288256409
0.20822096 0.73637003 0.30829722 4288256409
0.14385763 0.68054855 0.30220586 4288256409
0.1212586 0.65862012 0.3006345 4288256409
0.096375428 0.63211781 0.30068019 4288256409
0.096285045 0.62561315 0.29956803 4288256409
0.28955203 0.79974979 0.35012048 4293138972
0.26412854 0.78109646 0.31202009 4293138972
0.13268681 0.66508359 0.30187902 4288256409
0.10012163 0.6412527 0.2993589 4288256409
0.2801671 0.8015632 0.35371578 4293138972
0.25882629 0.79301441 0.26163638 4293138972
0.16207099 0.70036215 0.30248049 4288256409
0.15291409 0.68787986 0.30296949 4288256409
0.130474 0.66021603 0.30207652 4288256409
0.10953576 0.64191347 0.3017427 4288256409
0.10086432 0.63116586 0.30113024 4288256409
0.1000564 0.63276136 0.30099648 4288256409
0.09272185 0.64315605 0.29870126 4288256409
0.09148366 0.63671893 0.29774871 4288256409
0.087929405 0.63280272 0.29558471 4288256409
0.28660589 0.79768395 0.34956446 4293138972
0.2667945 0.77976251 0.31362197 4293138972
0.2493141 0.81010681 0.26111293 4293138972
0.18196537 0.71672142 0.30496967 4288256409
0.15001011 0.68327391 0.30318856 4288256409
0.088682167 0.64129072 0.29278058 4288256409
0.085332111 0.6329875 0.27797213 4288256409
0.099067219 0.63831174 0.30005184 4288256409
0.08651749 0.63059199 0.27469406 4288256409
0.24797745 0.79866999 0.32181746 4293138972
0.15967642 0.69151157 0.30354014 4288256409
0.13280341 0.66932178 0.30136153 4288256409
0.15812756 0.68824559 0.30372378 4288256409
0.10214418 0.6344586 0.30142725 4288256409
0.10125152 0.64067423 0.30005887 4288256409
0.29039696 0.80489391 0.35273781 4293138972
0.27048257 0.77947146 0.33508292 4293138972
0.26875368 0.78019929 0.32154012 4293138972
0.1323276 0.66363543 0.30198926 4288256409
0.099889301 0.62893099 0.300776 4288256409
0.24953489 0.80005926 0.27294081 4293138972
0.086895064 0.63236582 0.29127303 4288256409
0.28176969 0.81504476 0.35477683 4293138972
0.27022561 0.77987331 0.33940858 4293138972
0.13851885 0.66900253 0.30228779 4288256409
0.12625715 0.65976042 0.30182254 4288256409
0.11237872 0.64390641 0.30121997 4288256409
0.19971825 0.72881639 0.30683973 4288256409
0.11325967 0.64514333 0.30187649 4288256409
0.28847656 0.80935085 0.35314831 4293138972
0.24607162 0.77565742 0.31271383 4288256409
0.097308703 0.6269359 0.30073732 4288256409
0.28429559 0.80825901 0.35581225 4293138972
0.26975018 0.77949613 0.32416254 4293138972
0.26838693 0.77973503 0.31824586 4293138972
0.24813165 0.80330247 0.28941327 4293138972
0.19625361 0.72446978 0.30629233 4288256409
0.19199644 0.72149384 0.30595642 4288256409
0.16334243 0.6954214 0.30427098 4288256409
0.14679387 0.69170016 0.29935122 4288256409
0.13402349 0.66660219 0.30258903 4288256409
0.11926445 0.65094656 0.30157697 4288256409
0.1146161 0.64306659 0.30214021 4288256409
0.091214448 0.63306093 0.2984336 4288256409
0.088457718 0.62873882 0.2741569 4288256409
0.28432253 0.79443949 0.34960034 4293138972
0.28174505 0.78888237 0.34939936 4293138972
0.25339928 0.79232299 0.32315412 4293138972
0.16535811 0.70292735 0.30365703 4288256409
0.15262204 0.69874287 0.29939628 4288256409
0.14528127 0.67772835 0.30260143 4288256409
0.28927013 0.79702878 0.35030782 4293138972
0.23324181 0.75635719 0.31099302 4288256409
0.24737832 0.8084873 0.26647016 4293138972
0.25625476 0.79418546 0.26364249 4293138972
0.15922163 0.68938011 0.30504018 4288256409
0.14546713 0.68366784 0.30266559 4288256409
0.10728385 0.63729304 0.3019132 4288256409
0.26976168 0.77976334 0.3308484 4293138972
0.27106521 0.77903861 0.32678193 4293138972
0.24704827 0.80216801 0.33160239 4293138972
0.25428063 0.79586089 0.26719218 4293138972
0.19128174 0.71974468 0.30607209 4288256409
0.12379521 0.65617555 0.30189267 4288256409
0.11293449 0.65099245 0.30033883 4288256409
0.10882813 0.6441415 0.3010855 4288256409
0.10497504 0.63659644 0.30166811 4288256409
0.27994099 0.81280607 0.35423166 4293138972
0.13492326 0.66299963 0.30243313 4288256409
0.2873863 0.79425919 0.35000604 4293138972
0.21181014 0.73997515 0.30907157 4288256409
0.10020919 0.64282817 0.29919994 4288256409
0.096583068 0.64233762 0.29966787 4288256409
0.28585932 0.79148704 0.35001534 4293138972
0.11162554 0.64942998 0.30076486 4288256409
0.089246161 0.62801272 0.27549985 4288256409
0.29245993 0.79902405 0.35125351 4293138972
0.21054825 0.73663384 0.30884516 4288256409
0.17447309 0.72204661 0.30630741 4288256409
0.16309232 0.71131283 0.30122891 4288256409
0.11378936 0.64775932 0.30139875 4288256409
0.1125732 0.64820367 0.30086377 4288256409
0.094343692 0.63577539 0.30050153 4288256409
0.27042523 0.78183472 0.34346384 4293138972
0.11653554 0.66364908 0.2988061 4288256409
0.09915144 0.64356709 0.29854754 4288256409
0.28369302 0.78830278 0.35007793 4293138972
0.27834707 0.78577542 0.34858066 4293138972
0.27496305 0.78322035 0.34665513 4293138972
0.24532996 0.80417955 0.31244469 4293138972
0.10822636 0.63967431 0.30187792 4288256409
0.085820638 0.63354939 0.28825301 4288256409
0.27788696 0.78356814 0.3481465 4293138972
0.27207318 0.78014255 0.34297091 4293138972
0.16405912 0.70954329 0.30509725 4288256409
0.087009661 0.63521385 0.29387608 4288256409
0.29182115 0.80262965 0.35199481 4293138972
0.11054226 0.64324272 0.30179954 4288256409
0.089628026 0.63128805 0.29730478 4288256409
0.093980841 0.62344962 0.28256661 4288256409
0.092579953 0.62452918 0.27648363 4288256409
0.15077415 0.68084449 0.30365357 4288256409
0.10906743 0.65771854 0.29819658 4288256409
0.10169781 0.63254219 0.30116072 4288256409
0.09001936 0.6268816 0.27344066 4288256409
0.20601423 0.73230255 0.30715054 4288256409
0.13531032 0.67186034 0.30197433 4288256409
0.10293009 0.63292164 0.30158907 4288256409
0.090761021 0.62618566 0.2750749 4288256409
0.20892145 0.73404628 0.30862486 4288256409
0.2034954 0.72890836 0.30726054 4288256409
0.20036839 0.72645563 0.30646813 4288256409
0.19494863 0.72254336 0.30629492 4288256409
0.18582554 0.71620238 0.30590129 4288256409
0.1817413 0.71348506 0.30483526 4288256409
0.17289464 0.70170027 0.30449641 4288256409
0.12451611 0.65457934 0.30260357 4288256409
0.10835591 0.63828045 0.30212665 4288256409
0.10430161 0.63439792 0.30176386 4288256409
0.1026843 0.6305449 0.30121592 4288256409
0.10125433 0.62908608 0.30101225 4288256409
0.095597602 0.62455922 0.29829293 4288256409
0.08628618 0.63758856 0.28775826 4288256409
0.09373416 0.6232546 0.27958512 4288256409
0.23602824 0.7580598 0.31245843 4288256409
0.24929243 0.80044001 0.27983823 4293138972
0.18101355 0.71037263 0.30488396 4288256409
0.12092234 0.65059298 0.3023684 4288256409
0.083619401 0.63448036 0.28567535 4288256409
0.091237217 0.62562847 0.2795293 4288256409
0.2904653 0.79397571 0.35111955 4293138972
0.12622242 0.65695286 0.30244142 4288256409
0.1222695 0.65197915 0.30199528 4288256409
0.099342287 0.62738556 0.30127874 4288256409
0.097190447 0.6243341 0.29927218 4288256409
0.093245164 0.62361145 0.29380009 4288256409
0.08470118 0.63847196 0.28594264 4288256409
0.085397817 0.63223177 0.28454784 4288256409
0.084244825 0.6375556 0.28372547 4288256409
0.093148157 0.62393117 0.27755252 4288256409
0.092731915 0.62541163 0.27351204 4288256409
0.18307887 0.71185642 0.30553985 4288256409
0.16596666 0.69759393 0.30386609 4288256409
0.12401156 0.65322185 0.30219105 4288256409
0.11840478 0.64754719 0.30190739 4288256409
0.11638919 0.6467545 0.3018398 4288256409
0.15540875 0.68503517 0.30423543 4288256409
0.13849823 0.66773516 0.30315021 4288256409
0.095100388 0.6218484 0.2943041 4288256409
0.25113404 0.79773659 0.27399322 4293138972
0.12623128 0.65463346 0.30256891 4288256409
0.11734098 0.64495349 0.30226502 4288256409
0.095195338 0.62306416 0.29697445 4288256409
0.29519469 0.80397743 0.35252672 4293138972
0.28178445 0.78603703 0.34920818 4293138972
0.27146149 0.77801967 0.32245687 4293138972
0.10955151 0.6403839 0.30263087 4288256409
0.094108351 0.62223631 0.29261252 4288256409
0.094537459 0.62195623 0.287155 4288256409
0.15316541 0.69821638 0.29941198 4288256409
0.14640629 0.6767593 0.30305481 4288256409
0.14106253 0.67391115 0.30304331 4288256409
0.13248743 0.66184604 0.30209666 4288256409
0.12736003 0.65563953 0.30316031 4288256409
0.12820481 0.65912861 0.30216819 4288256409
0.12065364 0.649189 0.30206713 4288256409
0.08857841 0.62848687 0.29312527 4288256409
0.084379092 0.63404548 0.2818509 4288256409
0.086172111 0.6321103 0.28269741 4288256409
0.27053118 0.77914613 0.33252358 4293138972
0.13622583 0.6798501 0.30150664 4288256409
0.13096133 0.67150825 0.3010976 4288256409
0.099759445 0.64172375 0.29860711 4288256409
0.087444037 0.6334703 0.29741755 4288256409
0.25766656 0.78953135 0.34074146 4293138972
0.26684943 0.81633085 0.35048985 4293138972
0.18424462 0.71392334 0.30583116 4288256409
0.14735699 0.67851931 0.30354172 4288256409
0.14259079 0.67295092 0.3035315 4288256409
0.13633984 0.68267119 0.2972059 4288256409
0.1348024 0.67038578 0.30158636 4288256409
0.093102008 0.62332678 0.28879085 4288256409
0.09472239 0.62196809 0.28078133 4288256409
0.17759599 0.71543807 0.30489811 4288256409
0.14481032 0.67361444 0.30369532 4288256409
0.11213978 0.64217442 0.3022069 4288256409
0.11048657 0.63846713 0.30248782 4288256409
0.093935557 0.6224966 0.2900413 4288256409
0.24460767 0.80295652 0.2963596 4293138972
0.095268905 0.62117243 0.28962901 4288256409
0.09592741 0.62056965 0.28672442 4288256409
0.089065321 0.6279121 0.28773245 4288256409
0.089855544 0.62737262 0.27662557 4288256409
0.26923278 0.77879667 0.32052198 4293138972
0.17927752 0.70759165 0.30474111 4288256409
0.14645827 0.67566681 0.30391908 4288256409
0.10046256 0.63918698 0.29991382 4288256409
0.096943647 0.62013245 0.29017293 4288256409
0.096696496 0.61995232 0.28800127 4288256409
0.094479844 0.621934 0.28324103 4288256409
0.24596845 0.80352509 0.30908599 4293138972
0.14030214 0.67028856 0.30375078 4288256409
0.1340002 0.66466832 0.30308598 4288256409
0.096191674 0.62274915 0.2981855 4288256409
0.16779885 0.70500326 0.30405611 4288256409
0.12059125 0.66498291 0.29911512 4288256409
0.096307904 0.62054545 0.29305685 4288256409
0.26884404 0.77878594 0.31550965 4293138972
0.13976327 0.66927779 0.30309594 4288256409
0.13635276 0.66615647 0.30337265 4288256409
0.12342823 0.65205318 0.30289841 4288256409
0.096267186 0.63751781 0.30016142 4288256409
0.096633941 0.62102968 0.2966429 4288256409
0.094163634 0.62303483 0.29553673 4288256409
0.1821612 0.70828152 0.30533072 4288256409
0.16862287 0.69848782 0.30404803 4288256409
0.13997309 0.66773361 0.30401239 4288256409
0.25151464 0.79642123 0.34116223 4293138972
0.14886041 0.67764193 0.30411673 4288256409
0.28445324 0.78630894 0.3506811 4293138972
0.249384 0.79881066 0.34402013 4293138972
0.11550716 0.64437616 0.30242252 4288256409
0.084945962 0.63513666 0.29099423 4288256409
0.19358128 0.72959048 0.30568194 4288256409
0.1607478 0.69124997 0.30465677 4288256409
0.12245706 0.6505723 0.30299163 4288256409
0.26365739 0.78317392 0.33211023 4293138972
0.17089498 0.69862467 0.30442211 4288256409
0.1649773 0.69560713 0.30523968 4288256409
0.12014224 0.64700294 0.30178264 4288256409
0.29378229 0.80626565 0.35360333 4293138972
0.25646037 0.79998201 0.3502197 4293138972
0.27037755 0.78007883 0.34166542 4293138972
0.2712397 0.77870429 0.33737981 4293138972
0.27003863 0.77799439 0.31801158 4293138972
0.27019525 0.77744406 0.31402889 4293138972
0.17734478 0.70516825 0.30510703 4288256409
0.1591455 0.68774384 0.30467451 4288256409
0.15469131 0.6916216 0.30339107 4288256409
0.097700596 0.62306368 0.29929972 4288256409
0.087450236 0.62974298 0.28461722 4288256409
0.15155263 0.68318051 0.30428788 4288256409
0.093392767 0.63821989 0.29907036 4288256409
0.089013025 0.62830085 0.29478079 4288256409
0.27594441 0.78134447 0.34661976 4293138972
0.17179312 0.70938289 0.30468953 4288256409
0.1262621 0.65362293 0.30319983 4288256409
0.088912562 0.63524181 0.29643503 4288256409
0.27375937 0.77967697 0.34471849 4293138972
0.19170305 0.73563153 0.303873 4288256409
0.14995749 0.67904913 0.30439973 4288256409
0.13579804 0.67634612 0.30088922 4288256409
0.10763477 0.64610428 0.30030125 4288256409
0.15311092 0.68186063 0.30463803 4288256409
0.14816056 0.67636234 0.30446818 4288256409
0.087208301 0.62965137 0.29076776 4288256409
0.088407807 0.62904084 0.27749637 4288256409
0.095635578 0.62552905 0.27116457 4288256409
0.086386591 0.63102692 0.27666473 4288256409
0.14981784 0.69403756 0.30010414 4288256409
0.11362535 0.65662342 0.29943359 4288256409
0.095513746 0.62104547 0.27978146 4288256409
0.091764532 0.62453139 0.28077897 4288256409
0.098102905 0.62168759 0.29823187 4288256409
0.094803803 0.62114847 0.28535888 4288256409
0.19203016 0.72455484 0.30676737 4288256409
0.090043105 0.62595636 0.29127631 4288256409
0.16480523 0.70128369 0.30462766 4288256409
0.095995359 0.62058502 0.28233173 4288256409
0.086350903 0.63098085 0.28089416 4288256409
0.18927151 0.73148817 0.30391443 4288256409
0.098273531 0.62598294 0.30120528 4288256409
0.096589126 0.61967719 0.28433472 4288256409
0.096923552 0.62438583 0.27285203 4288256409
0.2582348 0.78777498 0.33907986 4293138972
0.097576044 0.62271661 0.27542025 4288256409
0.09721484 0.6192137 0.29183486 4288256409
0.091494069 0.6253379 0.27227947 4288256409
0.097712874 0.62795085 0.2657679 4288256409
0.088316634 0.6277808 0.27242014 4288256409
0.18252175 0.72029257 0.3047424 4288256409
0.16192169 0.69052535 0.30573693 4288256409
0.26828122 0.77791303 0.31250563 4293138972
0.14615941 0.68167508 0.30299219 4288256409
0.091463052 0.6244542 0.28941134 4288256409
0.096478961 0.61990237 0.27974191 4288256409
0.20102273 0.73508519 0.30793935 4288256409
0.13257405 0.66006297 0.30280724 4288256409
0.096626535 0.61990458 0.29469171 4288256409
0.27127132 0.77664125 0.31590897 4293138972
0.16481754 0.69242322 0.30753791 4288256409
0.13545966 0.66429907 0.30389002 4288256409
0.098337032 0.62260711 0.30047801 4288256409
0.087715611 0.6315918 0.29341006 4288256409
0.090470619 0.62548232 0.29291436 4288256409
0.28143916 0.78370661 0.34929544 4293138972
0.25278771 0.79565895 0.27242526 4293138972
0.19551818 0.73281926 0.30703014 4288256409
0.18414304 0.71977437 0.30629277 4288256409
0.09713082 0.61909682 0.28056598 4288256409
0.26874846 0.80770969 0.35213071 4293138972
0.2606672 0.7897594 0.26045042 4293138972
0.26047593 0.79051858 0.26310077 4293138972
0.13824821 0.68037647 0.30053926 4288256409
0.15353203 0.69292021 0.30363622 4288256409
0.2469175 0.80128217 0.26941937 4293138972
0.25676486 0.792189 0.26674983 4293138972
0.12002686 0.66172945 0.29990211 4288256409
0.24697444 0.80081207 0.28641737 4293138972
0.17914122 0.72318041 0.30351013 4288256409
0.1704153 0.70539302 0.30454439 4288256409
0.12260462 0.66536427 0.29922068 4288256409
0.087427594 0.62962121 0.27598 4288256409
0.1045301 0.65078157 0.29856804 4288256409
0.099406697 0.62378651 0.27099508 4288256409
0.12789339 0.668966 0.3006207 4288256409
0.12761691 0.65737909 0.30337799 4288256409
0.20356315 0.74691725 0.30600616 4288256409
0.12306487 0.66723156 0.29922223 4288256409
0.086814538 0.63032788 0.28861117 4288256409
0.09853375 0.62132698 0.29990909 4288256409
0.087361291 0.62909681 0.28622267 4288256409
