# .PCD v0.7 - Point Cloud Data file format
VERSION 0.7
FIELDS x y z rgba
SIZE 4 4 4 4
TYPE F F F U
COUNT 1 1 1 1
WIDTH 1094
HEIGHT 1
VIEWPOINT 0 0 0 1 0 0 0
POINTS 1094
DATA ascii
0.30358475 0.79736954 0.26642609 4293138972
0.3015587 0.79507333 0.26452577 4293138972
0.29891923 0.79287612 0.2621159 4293138972
0.30722338 0.80446267 0.28146684 4293138972
0.30454484 0.80854481 0.28247583 4293138972
0.30985892 0.80308002 0.28062162 4293138972
0.30910647 0.80117571 0.27721044 4293138972
0.30662265 0.79905587 0.27542585 4293138972
0.30443916 0.79751945 0.2735565 4293138972
0.30133259 0.79465467 0.27071765 4293138972
0.29925254 0.79200155 0.26914588 4293138972
0.27189705 0.80977732 0.26217529 4293138972
0.31662354 0.81320363 0.28392124 4293138972
0.3091234 0.80491817 0.27709666 4293138972
0.30969465 0.80497015 0.27586094 4293138972
0.3100186 0.80245823 0.27527881 4293138972
0.30667657 0.79963464 0.27215013 4293138972
0.30415997 0.79756331 0.27031419 4293138972
0.30259836 0.79580557 0.26803786 4293138972
0.30010763 0.79337794 0.26559687 4293138972
0.29734108 0.79129833 0.26345187 4293138972
0.31692636 0.81086457 0.27989504 4293138972
0.30915704 0.80528116 0.27423975 4293138972
0.30933625 0.80492413 0.27327648 4293138972
0.30966991 0.80320728 0.27208713 4293138972
0.29812962 0.79091305 0.26099032 4293138972
0.30897287 0.80659533 0.26928806 4293138972
0.30989033 0.80240542 0.28363407 4293138972
0.30914706 0.80119783 0.28063866 4293138972
0.30741787 0.79933184 0.28104883 4293138972
0.30410984 0.79728276 0.27649918 4293138972
0.30236056 0.7951417 0.2755346 4293138972
0.3000229 0.79285002 0.2715947 4293138972
0.29839048 0.79126614 0.27209827 4293138972
0.29511431 0.78850639 0.26958203 4293138972
0.2962876 0.78931803 0.26532322 4293138972
0.31749001 0.81119031 0.27237648 4293138972
0.30889368 0.80665952 0.26732871 4293138972
0.31531253 0.80865037 0.29591534 4293138972
0.30923966 0.80363345 0.28821996 4293138972
0.30886024 0.80255413 0.28757259 4293138972
0.30711696 0.79916096 0.28608069 4293138972
0.30514207 0.79758984 0.28351727 4293138972
0.30377105 0.79607069 0.28176692 4293138972
0.30146328 0.79459476 0.28009185 4293138972
0.29842174 0.79174632 0.27561194 4293138972
0.29714978 0.78998005 0.27427682 4293138972
0.31597713 0.81122041 0.29157349 4293138972
0.31563237 0.80811226 0.29088515 4293138972
0.30582345 0.80726761 0.28685582 4293138972
0.3094742 0.8035109 0.28517371 4293138972
0.30860204 0.80057734 0.2838071 4293138972
0.30682504 0.79893458 0.2835888 4293138972
0.30513364 0.79788703 0.27990922 4293138972
0.30269662 0.79569989 0.27834928 4293138972
0.30036685 0.79349411 0.27422795 4293138972
0.29619133 0.78977329 0.27207437 4293138972
0.26089704 0.8092587 0.26006189 4293138972
0.31533307 0.81043285 0.28877062 4293138972
0.31511834 0.80775344 0.28768271 4293138972
0.30896419 0.80382538 0.28173828 4293138972
0.30572328 0.79857641 0.27777541 4293138972
0.26828423 0.81160003 0.26273555 4293138972
0.30963072 0.80428874 0.279149 4293138972
0.30045435 0.7938869 0.26797593 4293138972
0.29760411 0.79129225 0.2661995 4293138972
0.315999 0.80747545 0.28078592 4293138972
0.30868122 0.80358738 0.29236862 4293138972
0.30893007 0.80170512 0.29115644 4293138972
0.30810896 0.80027044 0.28913012 4293138972
0.30539212 0.79774302 0.28687289 4293138972
0.30346781 0.79615992 0.28504795 4293138972
0.30104238 0.79403132 0.28354469 4293138972
0.29986733 0.79269582 0.28099993 4293138972
0.29789558 0.79074097 0.27999264 4293138972
0.2956135 0.78852886 0.27574641 4293138972
0.3007299 0.79383588 0.27761218 4293138972
0.29679027 0.79005945 0.27000803 4293138972
0.31720495 0.81159931 0.28703967 4293138972
0.2903626 0.82285899 0.29336461 4293138972
0.31666833 0.81026715 0.28206158 4293138972
0.29264295 0.78561175 0.2725229 4293138972
0.29347578 0.7864362 0.26966858 4293138972
0.30630022 0.80765438 0.28265244 4293138972
0.29501438 0.78812313 0.2627525 4293138972
0.31400657 0.80752552 0.30606288 4293138972
0.2980276 0.80994064 0.30639404 4293138972
0.30742767 0.79932147 0.29813793 4293138972
0.30572659 0.79733849 0.29700333 4293138972
0.30423686 0.79619515 0.29495943 4293138972
0.3014057 0.79379714 0.29320407 4293138972
0.2992731 0.79217565 0.29003417 4293138972
0.29697582 0.78994745 0.2883386 4293138972
0.29448825 0.78731102 0.28693649 4293138972
0.29398268 0.78639168 0.28470656 4293138972
0.30590665 0.80312663 0.29719082 4293138972
0.30793926 0.80093002 0.29574981 4293138972
0.30647147 0.79834062 0.29434612 4293138972
0.30457205 0.79652441 0.29200056 4293138972
0.30255032 0.79471314 0.29059353 4293138972
0.3003577 0.79334533 0.28788248 4293138972
0.29842487 0.79135472 0.28649098 4293138972
0.2960135 0.78892797 0.28593644 4293138972
0.29540673 0.78805906 0.2833488 4293138972
0.31519315 0.80784273 0.29921204 4293138972
0.307587 0.80318797 0.29525518 4293138972
0.30804312 0.80014157 0.29355171 4293138972
0.30628538 0.79773581 0.29036438 4293138972
0.30401874 0.79601878 0.28863543 4293138972
0.30162472 0.79446673 0.28618267 4293138972
0.29928285 0.79196268 0.28375942 4293138972
0.29672462 0.78967887 0.28150916 4293138972
0.29574141 0.78841472 0.27991426 4293138972
0.29673979 0.78982937 0.27814746 4293138972
0.31508344 0.80834657 0.29221335 4293138972
0.30296743 0.80907184 0.28972027 4293138972
0.29941991 0.79187202 0.27892825 4293138972
0.30720943 0.80012095 0.27780595 4293138972
0.30245283 0.79621804 0.27196765 4293138972
0.29701656 0.79002976 0.2676957 4293138972
0.29136845 0.78435659 0.27965474 4293138972
0.29316309 0.78618735 0.27605227 4293138972
0.30868271 0.80179286 0.28506359 4293138972
0.31624788 0.80912048 0.28465259 4293138972
0.31638837 0.80854535 0.27781206 4293138972
0.31066144 0.80461192 0.31304651 4293138972
0.30677006 0.79983032 0.30651 4293138972
0.30633119 0.79824811 0.30562595 4293138972
0.30363393 0.79539627 0.30312952 4293138972
0.30133319 0.79318511 0.30152044 4293138972
0.29938501 0.79152292 0.29924142 4293138972
0.29729161 0.78936964 0.29742074 4293138972
0.29510996 0.7871654 0.29617682 4293138972
0.29199621 0.784343 0.29257151 4293138972
0.31367755 0.8068732 0.31084514 4293138972
0.29413769 0.81276476 0.31253916 4293138972
0.307033 0.80068648 0.30377012 4293138972
0.30682158 0.79891169 0.30240941 4293138972
0.30538595 0.79646158 0.30129114 4293138972
0.30250737 0.79442477 0.29932007 4293138972
0.30037621 0.79236811 0.29708263 4293138972
0.29776528 0.79037756 0.29488069 4293138972
0.2960057 0.78830129 0.29395199 4293138972
0.2929619 0.78595269 0.2903333 4293138972
0.29133719 0.78362077 0.28839862 4293138972
0.30620545 0.8025558 0.30335003 4293138972
0.30802816 0.80070853 0.3009046 4293138972
0.30648553 0.79797065 0.30004293 4293138972
0.30421495 0.79586411 0.29848605 4293138972
0.3017554 0.79362148 0.29674965 4293138972
0.29947513 0.79184669 0.29347926 4293138972
0.29736742 0.78984982 0.29153344 4293138972
0.29514635 0.78769529 0.28910425 4293138972
0.29291639 0.78532004 0.28828445 4293138972
0.29628566 0.81208235 0.30568191 4293138972
0.30548716 0.80610228 0.29077834 4293138972
0.30613121 0.80275881 0.29965013 4293138972
0.30840826 0.80172563 0.29846659 4293138972
0.29397708 0.78687048 0.28128982 4293138972
0.29447898 0.78726465 0.27394167 4293138972
0.30596426 0.79952812 0.2653901 4293138972
0.31396091 0.80501413 0.31544062 4293138972
0.30547249 0.80006957 0.3098999 4293138972
0.3057307 0.79733211 0.30806866 4293138972
0.30401543 0.79559457 0.30708548 4293138972
0.30234337 0.79393131 0.30451864 4293138972
0.29954836 0.79158962 0.30253968 4293138972
0.29857358 0.79004204 0.30197859 4293138972
0.29587799 0.78752792 0.29883146 4293138972
0.29327247 0.7857973 0.29477286 4293138972
0.28952712 0.78220487 0.2926341 4293138972
0.28738034 0.78045905 0.29040912 4293138972
0.2844255 0.77872437 0.28910771 4293138972
0.28327301 0.77778673 0.28654703 4293138972
0.2886129 0.78155231 0.28865048 4293138972
0.28627163 0.77990901 0.28698865 4293138972
0.28815448 0.78100276 0.28524852 4293138972
0.29067904 0.78362489 0.28308943 4293138972
0.31444168 0.80548501 0.30170381 4293138972
0.29459763 0.78755879 0.26706785 4293138972
0.31000704 0.80305862 0.27788296 4293138972
0.30644482 0.8008979 0.32079166 4293138972
0.30664569 0.79880035 0.31676444 4293138972
0.30523488 0.79709721 0.3153975 4293138972
0.30332652 0.79524148 0.31350422 4293138972
0.3016133 0.79357231 0.31233656 4293138972
0.29837242 0.79059809 0.30945271 4293138972
0.29625711 0.78865564 0.30658647 4293138972
0.29360572 0.78595537 0.30435729 4293138972
0.29154113 0.78379399 0.30256283 4293138972
0.28932011 0.78137738 0.30144548 4293138972
0.28527227 0.77941799 0.29558012 4293138972
0.28301305 0.77837783 0.29504427 4293138972
0.27826774 0.77700847 0.29293674 4293138972
0.27231082 0.77605659 0.28892544 4293138972
0.3041172 0.80138397 0.31294349 4293138972
0.30590999 0.79977119 0.31337944 4293138972
0.30575737 0.79922432 0.31161693 4293138972
0.30450755 0.79606599 0.30993941 4293138972
0.30247754 0.79458928 0.307574 4293138972
0.30038407 0.79195857 0.3051576 4293138972
0.29753488 0.78957355 0.30400568 4293138972
0.2962985 0.7883231 0.30201933 4293138972
0.2924712 0.78464323 0.29960641 4293138972
0.29089999 0.78330785 0.29816437 4293138972
0.28811356 0.7806015 0.29577494 4293138972
0.28476092 0.77904785 0.29188633 4293138972
0.28210446 0.77771193 0.28963405 4293138972
0.29763955 0.78929245 0.30006853 4293138972
0.29351377 0.78586394 0.297869 4293138972
0.29207739 0.78401977 0.29582131 4293138972
0.28964683 0.78239334 0.29483545 4293138972
0.28715819 0.78031522 0.2929793 4293138972
0.30340081 0.80365658 0.30703118 4293138972
0.30607462 0.80038744 0.30794072 4293138972
0.30638281 0.80133522 0.30520594 4293138972
0.2952621 0.78839564 0.29089642 4293138972
0.29415077 0.78755486 0.27772936 4293138972
0.31221399 0.80541575 0.32535303 4293138972
0.29133967 0.81156051 0.3309927 4293138972
0.30653274 0.80005169 0.31815183 4293138972
0.30665272 0.79824561 0.32000098 4293138972
0.30459872 0.79592729 0.31635061 4293138972
0.30257332 0.79434109 0.31518465 4293138972
0.3000131 0.79224086 0.31072596 4293138972
0.29722387 0.7892102 0.30914003 4293138972
0.29548949 0.78731489 0.30862421 4293138972
0.29308575 0.78533876 0.30727392 4293138972
0.29025185 0.78269911 0.30153272 4293138972
0.28745779 0.78019524 0.30225614 4293138972
0.28590652 0.77896988 0.29890355 4293138972
0.28145391 0.77791703 0.29716504 4293138972
0.27423698 0.77679741 0.29196918 4293138972
0.2697241 0.77462035 0.28885683 4293138972
0.26876745 0.77379441 0.28660128 4293138972
0.26646632 0.77144527 0.28569192 4288256409
0.3037813 0.80348945 0.31436899 4293138972
0.30526257 0.80136335 0.31060293 4293138972
0.29051131 0.78278291 0.29078442 4293138972
0.28976586 0.78256959 0.28533787 4293138972
0.29249451 0.78499794 0.28233406 4293138972
0.30879334 0.80245286 0.2943818 4293138972
0.29701942 0.78995776 0.28413722 4293138972
0.29266429 0.78571153 0.2786645 4293138972
0.30476901 0.79871017 0.3252722 4293138972
0.30421612 0.79609478 0.32245031 4293138972
0.30338818 0.79406166 0.32169572 4293138972
0.30066282 0.79199898 0.32016012 4293138972
0.29842582 0.7901082 0.31899598 4293138972
0.29580587 0.7875694 0.31456932 4293138972
0.29275665 0.78473943 0.31188443 4293138972
0.29062638 0.78270477 0.31022727 4293138972
0.28861949 0.78090638 0.30888885 4293138972
0.28578338 0.77870506 0.30728841 4293138972
0.2818602 0.77771139 0.3038381 4293138972
0.27765894 0.77727115 0.30302078 4293138972
0.27035862 0.77585042 0.29500118 4293138972
0.26788297 0.77479321 0.29318503 4293138972
0.26507744 0.77228218 0.29045758 4288256409
0.26309469 0.77064711 0.2901749 4288256409
0.26180288 0.76935142 0.28808144 4288256409
0.30491224 0.79917318 0.32202816 4293138972
0.30511388 0.79754144 0.32094994 4293138972
0.30400097 0.7955448 0.31986234 4293138972
0.30213681 0.7931034 0.31887394 4293138972
0.29937017 0.7913081 0.31472203 4293138972
0.2977238 0.78914869 0.31387246 4293138972
0.29428875 0.78631687 0.31274003 4293138972
0.2918393 0.78425169 0.30893096 4293138972
0.29023269 0.78282636 0.30716699 4293138972
0.28775844 0.7802515 0.30558354 4293138972
0.28439936 0.7780807 0.30454308 4293138972
0.28081894 0.77740598 0.30058113 4293138972
0.27429983 0.77690983 0.2945227 4293138972
0.2711204 0.77600485 0.2930361 4293138972
0.26721525 0.77368766 0.29095826 4293138972
0.30460757 0.79973108 0.31945321 4293138972
0.30518955 0.79710203 0.3181628 4293138972
0.30352142 0.79475832 0.31798014 4293138972
0.30085701 0.79277384 0.31617725 4293138972
0.29892847 0.79065597 0.31213394 4293138972
0.29630908 0.78835005 0.31130597 4293138972
0.29424065 0.78623152 0.30955932 4293138972
0.29188254 0.78381592 0.30573869 4293138972
0.28954658 0.78175819 0.30486211 4293138972
0.28569496 0.77900553 0.3020303 4293138972
0.28306794 0.77796191 0.29997134 4293138972
0.27910718 0.77774185 0.29537833 4293138972
0.30661249 0.80098826 0.31687829 4293138972
0.30469367 0.79968631 0.32690373 4293138972
0.30357513 0.79774642 0.32633156 4293138972
0.30341002 0.79423428 0.32480592 4293138972
0.30208448 0.79258054 0.3233968 4293138972
0.29990003 0.79099727 0.32248652 4293138972
0.29673839 0.788405 0.31738693 4293138972
0.29432291 0.78608721 0.3159897 4293138972
0.29227617 0.78403419 0.31486323 4293138972
0.28924894 0.78142631 0.31202522 4293138972
0.28642416 0.77916825 0.3101275 4293138972
0.283346 0.77746511 0.30860487 4293138972
0.28057519 0.77694339 0.30577993 4293138972
0.27508053 0.77677262 0.30125231 4293138972
0.26877528 0.7751087 0.29719326 4293138972
0.26590091 0.77334708 0.29448339 4293138972
0.2636458 0.7714926 0.292761 4288256409
0.26035008 0.76852155 0.29011461 4288256409
0.25666016 0.76461399 0.28532562 4288256409
0.26399571 0.77078187 0.28742445 4288256409
0.26233268 0.76845229 0.28588906 4288256409
0.30450103 0.79662704 0.31236088 4293138972
0.27967173 0.776631 0.2875478 4293138972
0.30376631 0.80199027 0.30700514 4293138972
0.2941851 0.78669441 0.29199657 4293138972
0.30897915 0.80308115 0.29093421 4293138972
0.2880711 0.8333118 0.27047104 4293138972
0.29504836 0.78665882 0.30136234 4293138972
0.27967322 0.77724254 0.2904565 4293138972
0.27616382 0.77646977 0.28891742 4293138972
0.31055191 0.8045786 0.34077609 4293138972
0.30308056 0.79835021 0.3351042 4293138972
0.30377573 0.79601467 0.33456391 4293138972
0.30233306 0.79393119 0.33320129 4293138972
0.30149722 0.79254586 0.33208543 4293138972
0.29859874 0.78931028 0.32932609 4293138972
0.29613751 0.78746492 0.32756647 4293138972
0.29375046 0.78534889 0.32527044 4293138972
0.29164243 0.78354967 0.32307541 4293138972
0.28907853 0.78045768 0.32163739 4293138972
0.28670809 0.77838391 0.32026717 4293138972
0.28500789 0.77685672 0.31893584 4293138972
0.28058326 0.775603 0.31776363 4293138972
0.26835361 0.77732331 0.3085061 4293138972
0.26718909 0.77629822 0.3060773 4293138972
0.26325852 0.77408177 0.30381519 4293138972
0.26143113 0.77200073 0.30129391 4288256409
0.31038263 0.80587697 0.33815002 4293138972
0.30888367 0.80335176 0.33647728 4293138972
0.30330023 0.79876995 0.33278698 4293138972
0.30309224 0.79741853 0.33258587 4293138972
0.30304947 0.79513711 0.33190382 4293138972
0.30198517 0.79298681 0.32896951 4293138972
0.29991713 0.79094619 0.32750815 4293138972
0.29711556 0.78869826 0.32615378 4293138972
0.2959742 0.78687364 0.32438254 4293138972
0.29241869 0.78457737 0.32099089 4293138972
0.2892842 0.78178668 0.31815571 4293138972
0.28726092 0.77898622 0.31709242 4293138972
0.28479716 0.77748007 0.31516391 4293138972
0.27812278 0.77682739 0.31082201 4293138972
0.2754055 0.77672517 0.30788565 4293138972
0.27000824 0.776429 0.30511987 4293138972
0.26627183 0.77517301 0.30188358 4293138972
0.26390073 0.7730698 0.29855719 4288256409
0.26095563 0.77027398 0.29690057 4288256409
0.25960338 0.76866108 0.29558936 4288256409
0.25668019 0.76601821 0.29218212 4288256409
0.25381926 0.76351666 0.29026258 4288256409
0.25246027 0.7619285 0.28854862 4288256409
0.25021729 0.75933605 0.28698242 4288256409
0.24753281 0.75722551 0.28547904 4288256409
0.24463032 0.75403816 0.28332451 4288256409
0.24339116 0.75116789 0.28251889 4288256409
0.31036785 0.80413735 0.3340877 4293138972
0.30316001 0.79837108 0.3286117 4293138972
0.30274728 0.79667234 0.32811505 4293138972
0.30245087 0.794285 0.32647818 4293138972
0.29806387 0.78952473 0.32188162 4293138972
0.29644662 0.78804678 0.32103938 4293138972
0.29441413 0.78588486 0.32229465 4293138972
0.29291636 0.78453398 0.31769997 4293138972
0.28927284 0.78069484 0.31545791 4293138972
0.28598902 0.77857262 0.313806 4293138972
0.28276902 0.77744228 0.31100458 4293138972
0.28006312 0.77652234 0.30891547 4293138972
0.27382967 0.77655482 0.3043825 4293138972
0.26735994 0.77466708 0.30008909 4293138972
0.26566187 0.77379209 0.29736164 4293138972
0.26258376 0.77115875 0.29476401 4288256409
0.26014158 0.76908344 0.29302472 4288256409
0.25824532 0.76736158 0.29072449 4288256409
0.25547871 0.76478839 0.28916204 4288256409
0.25246876 0.76185727 0.28622934 4288256409
0.2504251 0.75993299 0.28471741 4288256409
0.24775518 0.75676084 0.28324574 4288256409
0.25715786 0.76612401 0.28830272 4288256409
0.25482321 0.76273215 0.28421479 4288256409
0.29817364 0.78982311 0.31601727 4293138972
0.27415431 0.77676207 0.29732236 4293138972
0.27850544 0.77716666 0.29764757 4293138972
0.30516145 0.80005777 0.31495801 4293138972
0.30593905 0.798208 0.3140426 4293138972
0.3019239 0.79345042 0.30974826 4293138972
0.29997966 0.79152447 0.308155 4293138972
0.29840836 0.7902745 0.30647245 4293138972
0.29542366 0.7874186 0.30517563 4293138972
0.29249382 0.78478199 0.28561699 4293138972
0.30644783 0.80444366 0.28912902 4293138972
0.29657421 0.79039961 0.27570942 4293138972
0.30161318 0.79491031 0.26068822 4293138972
0.29492509 0.78708833 0.31826279 4293138972
0.27847952 0.77706248 0.30093521 4293138972
0.30317461 0.79494482 0.31134108 4293138972
0.3072671 0.80430049 0.34912568 4293138972
0.28988704 0.80788201 0.3539834 4293138972
0.30042273 0.79651546 0.34383118 4293138972
0.30188063 0.79381037 0.34274256 4293138972
0.29963773 0.79096955 0.34224516 4293138972
0.29918566 0.79054797 0.33929732 4293138972
0.29650694 0.78744268 0.33811891 4293138972
0.29361296 0.78482378 0.33398962 4293138972
0.29203168 0.78316361 0.33263367 4293138972
0.29034004 0.78163797 0.33215407 4293138972
0.30134293 0.7958774 0.34213752 4293138972
0.3024444 0.79526454 0.34066615 4293138972
0.30115458 0.79238826 0.33780706 4293138972
0.30001131 0.79074878 0.33649862 4293138972
0.29710197 0.78791451 0.33568832 4293138972
0.29561818 0.78705543 0.33287707 4293138972
0.29383817 0.78456843 0.33149612 4293138972
0.28994319 0.78164768 0.32758555 4293138972
0.28766826 0.77944905 0.32840866 4293138972
0.28442144 0.77603215 0.32813317 4293138972
0.25894406 0.77719492 0.31184089 4293138972
0.2593604 0.77427173 0.3076233 4288256409
0.25707912 0.7721892 0.30634663 4288256409
0.25468245 0.76865399 0.30327004 4288256409
0.25217569 0.76680166 0.30202961 4288256409
0.24975188 0.7635687 0.30002862 4288256409
0.2490733 0.76176775 0.29904455 4288256409
0.24662296 0.75845104 0.29558063 4288256409
0.24452418 0.75595695 0.29422656 4288256409
0.2426524 0.75413704 0.29163706 4288256409
0.24027911 0.75163329 0.29011315 4288256409
0.23831071 0.75005352 0.29018232 4288256409
0.23513132 0.74639219 0.28725889 4288256409
0.23391992 0.74469936 0.28475985 4288256409
0.23178418 0.74163002 0.28339916 4288256409
0.3017467 0.79874974 0.3388733 4293138972
0.3022356 0.79769242 0.33812824 4293138972
0.30321509 0.7970432 0.33632252 4293138972
0.30225104 0.79394209 0.33616871 4293138972
0.3012872 0.79219717 0.33539164 4293138972
0.29888833 0.79004323 0.33323872 4293138972
0.29655933 0.7870189 0.33075991 4293138972
0.29312581 0.78460646 0.32803613 4293138972
0.29113108 0.78291339 0.32528099 4293138972
0.28958249 0.78137636 0.32378238 4293138972
0.28701144 0.77896005 0.32311267 4293138972
0.28313524 0.77563959 0.32095826 4293138972
0.26534027 0.77657866 0.30874664 4293138972
0.26084664 0.77345794 0.30508429 4288256409
0.25835919 0.77120841 0.30363515 4288256409
0.25750154 0.76949692 0.30211115 4288256409
0.25506079 0.76710373 0.30085567 4288256409
0.25297746 0.76522541 0.29801577 4288256409
0.25095078 0.76256263 0.29593843 4288256409
0.24833626 0.75953555 0.29391292 4288256409
0.24703063 0.75754285 0.2930944 4288256409
0.24379432 0.75445402 0.28922704 4288256409
0.24143316 0.7526648 0.28788877 4288256409
0.23977475 0.75055218 0.28682494 4288256409
0.2380666 0.74873453 0.28469732 4288256409
0.23548463 0.74560946 0.28286728 4288256409
0.31000304 0.80233067 0.34150496 4293138972
0.25480896 0.76618552 0.29786044 4288256409
0.25322852 0.76320112 0.29424548 4288256409
0.25038981 0.76093876 0.29329312 4288256409
0.24784367 0.75871825 0.2908586 4288256409
0.24574672 0.75630277 0.28785011 4288256409
0.2428114 0.75352222 0.28601196 4288256409
0.24089174 0.75080699 0.28393352 4288256409
0.23823698 0.74738085 0.28280544 4288256409
0.30033821 0.79106969 0.33034223 4293138972
0.25913218 0.7692523 0.29810378 4288256409
0.25705823 0.76769018 0.29709375 4288256409
0.25552043 0.76567852 0.29522437 4288256409
0.25211132 0.76219755 0.29175618 4288256409
0.25079021 0.76074415 0.28955683 4288256409
0.24801023 0.75824714 0.28814262 4288256409
0.24598607 0.75573057 0.28447261 4288256409
0.24226516 0.75263119 0.28378659 4288256409
0.29953989 0.79000515 0.32589951 4293138972
0.30509087 0.79773092 0.31070209 4293138972
0.29293871 0.78510892 0.30226493 4293138972
0.2997922 0.79737353 0.34400263 4293138972
0.23075595 0.73883224 0.28129339 4288256409
0.25992504 0.77034926 0.30054572 4288256409
0.2570225 0.76815164 0.29978177 4288256409
0.303157 0.79470664 0.32952625 4293138972
0.25757694 0.76730227 0.29429972 4288256409
0.2598592 0.76715887 0.28476387 4288256409
0.26703873 0.77280122 0.2881183 4293138972
0.30757523 0.7991091 0.29133809 4293138972
0.28077355 0.81865692 0.35390642 4293138972
0.28094167 0.81733978 0.35518262 4293138972
0.28067407 0.81210679 0.36110309 4293138972
0.29521307 0.79970652 0.35097218 4293138972
0.29604974 0.7967276 0.35012618 4293138972
0.29754579 0.79486001 0.34897122 4293138972
0.29755047 0.79173094 0.34773505 4293138972
0.29478839 0.78735191 0.34527668 4293138972
0.29296416 0.78516912 0.34351221 4293138972
0.29101118 0.78268284 0.34199476 4293138972
0.30074605 0.80900133 0.35169885 4293138972
0.29267985 0.80453801 0.34921235 4293138972
0.29614502 0.79979813 0.34768829 4293138972
0.29729831 0.79831755 0.34891045 4293138972
0.29858804 0.79627252 0.34803104 4293138972
0.29885614 0.79236448 0.34637171 4293138972
0.29857996 0.79075336 0.34526089 4293138972
0.29379785 0.78512734 0.34089088 4293138972
0.29262462 0.78389645 0.33981988 4293138972
0.29029664 0.78154963 0.33834687 4293138972
0.28776452 0.77856708 0.33521077 4293138972
0.24106129 0.75920993 0.30260834 4288256409
0.24056771 0.7569899 0.30061975 4288256409
0.23850971 0.75445765 0.29974118 4288256409
0.23614682 0.75185472 0.29800513 4288256409
0.23608541 0.7495048 0.29569808 4288256409
0.23406269 0.74693608 0.29349771 4288256409
0.23114593 0.74452162 0.29303962 4288256409
0.23005377 0.7424491 0.29111657 4288256409
0.22763094 0.73923236 0.28839734 4288256409
0.22678748 0.737104 0.28733662 4288256409
0.22533195 0.73452294 0.28688923 4288256409
0.22274393 0.73160422 0.28456488 4288256409
0.22052205 0.72835082 0.28250602 4288256409
0.29476255 0.78586417 0.33842072 4293138972
0.29337499 0.78457022 0.33658662 4293138972
0.29096815 0.78238004 0.33506829 4293138972
0.28906977 0.78002328 0.33363697 4293138972
0.28791395 0.77919018 0.33186412 4293138972
0.25256023 0.76955307 0.30600119 4288256409
0.24879904 0.76793635 0.30642787 4288256409
0.24535453 0.76221281 0.30278409 4288256409
0.24373969 0.75984859 0.30163422 4288256409
0.24281403 0.75782073 0.29977113 4288256409
0.24044967 0.75449842 0.29785883 4288256409
0.23820128 0.75196743 0.29651296 4288256409
0.23802491 0.75042868 0.29348603 4288256409
0.23595685 0.74810588 0.29146585 4288256409
0.23310171 0.74543267 0.29125541 4288256409
0.23146875 0.74333829 0.28925183 4288256409
0.22764295 0.73775792 0.28465462 4288256409
0.22383599 0.7315048 0.28246289 4288256409
0.22490364 0.72820801 0.28220317 4288256409
0.30021471 0.79175383 0.33990976 4293138972
0.22915258 0.73894566 0.2832391 4288256409
0.22692178 0.73514009 0.28219181 4288256409
0.29777908 0.78906405 0.33415419 4293138972
0.29765272 0.78848094 0.33187386 4293138972
0.28830498 0.78002429 0.32555407 4293138972
0.27058387 0.77741706 0.31223822 4293138972
0.2726379 0.77693117 0.30873379 4293138972
0.30313075 0.79882586 0.33048144 4293138972
0.30412805 0.79670274 0.33095625 4293138972
0.30138159 0.79231292 0.32626808 4293138972
0.28696913 0.77792686 0.33918667 4293138972
0.29999584 0.79465497 0.34712595 4293138972
0.23863779 0.75786686 0.30279478 4288256409
0.23725368 0.75576019 0.30197811 4288256409
0.23578128 0.75319976 0.30028254 4288256409
0.2338001 0.74953979 0.29759946 4288256409
0.23268424 0.74718732 0.29563537 4288256409
0.23031504 0.74508959 0.29524133 4288256409
0.22856155 0.74131602 0.29214156 4288256409
0.22733082 0.73959601 0.29063448 4288256409
0.22524197 0.7365343 0.28931829 4288256409
0.22368909 0.73357576 0.28794387 4288256409
0.21930888 0.72893476 0.28451639 4288256409
0.21746469 0.72638011 0.28250369 4288256409
0.21611901 0.72385669 0.28144017 4288256409
0.30005977 0.79803878 0.34689078 4293138972
0.25009745 0.7657277 0.30296156 4288256409
0.24774969 0.76288062 0.30160996 4288256409
0.24562237 0.76023257 0.29991978 4288256409
0.30145544 0.79405117 0.33875826 4293138972
0.29373845 0.78576946 0.31914958 4293138972
0.30269468 0.79921126 0.3281492 4293138972
0.30437407 0.79590988 0.32604688 4293138972
0.28764975 0.77987289 0.31284979 4293138972
0.30749816 0.80160403 0.3019197 4293138972
0.29668817 0.79375374 0.35020787 4293138972
0.29383588 0.78781718 0.34755078 4293138972
0.29216251 0.78573084 0.34615529 4293138972
0.28842327 0.7812801 0.34331688 4293138972
0.28499547 0.77642423 0.33820835 4293138972
0.23098014 0.748478 0.2983281 4288256409
0.23041621 0.74658698 0.29672366 4288256409
0.22877061 0.74312961 0.29501009 4288256409
0.22631656 0.74026901 0.29335743 4288256409
0.22510636 0.73824251 0.29217267 4288256409
0.22357659 0.73535556 0.29068545 4288256409
0.22178507 0.73269868 0.28937966 4288256409
0.22142038 0.73083091 0.28731373 4288256409
0.21814771 0.72719187 0.28507122 4288256409
0.21588385 0.72491872 0.28386787 4288256409
0.21243283 0.72078902 0.28117636 4288256409
0.28595218 0.77762997 0.33328778 4293138972
0.24432679 0.75709969 0.29648879 4288256409
0.24239562 0.75513703 0.29570231 4288256409
0.24023502 0.75245619 0.29208797 4288256409
0.23410194 0.7463702 0.28918958 4288256409
0.23179762 0.7425493 0.28680921 4288256409
0.23018487 0.74068308 0.28463718 4288256409
0.3034552 0.79540533 0.33745342 4293138972
0.27568761 0.77655691 0.31235912 4293138972
0.28819394 0.78012431 0.31870112 4293138972
0.30505759 0.79742986 0.32434818 4293138972
0.25961447 0.767308 0.28735363 4288256409
0.30593991 0.79879445 0.30931088 4293138972
0.28589597 0.78602546 0.35115162 4293138972
0.28671414 0.78386348 0.34939617 4293138972
0.29018748 0.80790561 0.35448092 4293138972
0.29081053 0.80435961 0.35514411 4293138972
0.29061767 0.80121392 0.35484529 4293138972
0.29075992 0.79249781 0.3526904 4293138972
0.29114562 0.78954685 0.35115811 4293138972
0.29009542 0.78641665 0.34908164 4293138972
0.28683758 0.78061014 0.34565842 4293138972
0.2854158 0.77857101 0.34471667 4293138972
0.21768016 0.73211265 0.29406831 4288256409
0.21634194 0.72968173 0.29316121 4288256409
0.21403809 0.72632933 0.29139289 4288256409
0.21256542 0.72450233 0.29126969 4288256409
0.21087794 0.7212404 0.28829652 4288256409
0.20982449 0.71963358 0.28638145 4288256409
0.20723717 0.71576089 0.28482813 4288256409
0.20574681 0.71293038 0.28288168 4288256409
0.20311119 0.71029812 0.28136903 4288256409
0.19520146 0.70201939 0.27496704 4288256409
0.19445443 0.69677711 0.27345806 4288256409
0.29246944 0.80386394 0.35242206 4293138972
0.29475868 0.80178565 0.35371739 4293138972
0.29516739 0.79812944 0.35216445 4293138972
0.29653582 0.79548979 0.35126299 4293138972
0.29582256 0.79208016 0.3503865 4293138972
0.29373202 0.78942889 0.34966823 4293138972
0.29174438 0.78813082 0.34943441 4293138972
0.29024723 0.78377867 0.34614363 4293138972
0.28513685 0.77648389 0.3408272 4293138972
0.227731 0.7502113 0.30400753 4288256409
0.22692586 0.7469275 0.30058128 4288256409
0.22587042 0.74491847 0.29894793 4288256409
0.22403944 0.74046957 0.2965726 4288256409
0.22142839 0.73816282 0.29542175 4288256409
0.21999861 0.73215795 0.29232118 4288256409
0.21805733 0.72951519 0.29089436 4288256409
0.21652558 0.72697425 0.28916407 4288256409
0.21461812 0.72499788 0.28762624 4288256409
0.21301083 0.72244644 0.28667057 4288256409
0.2106144 0.71884501 0.2835229 4288256409
0.20835979 0.71641666 0.28330907 4288256409
0.20749754 0.71417254 0.28154635 4288256409
0.20486821 0.71181315 0.27971652 4288256409
0.20301068 0.70954448 0.27697745 4288256409
0.20074819 0.70297664 0.27458546 4288256409
0.23432989 0.75360227 0.30264023 4288256409
0.2302396 0.74945271 0.30116186 4288256409
0.22866286 0.74622691 0.29827946 4288256409
0.22687449 0.74439085 0.29656044 4288256409
0.22611429 0.74207246 0.29613569 4288256409
0.22420178 0.7388109 0.2945244 4288256409
0.22308224 0.73637438 0.2933104 4288256409
0.22164907 0.73392671 0.29172269 4288256409
0.21989584 0.73071629 0.28957331 4288256409
0.21849836 0.72872621 0.28779528 4288256409
0.21650518 0.72611135 0.28661954 4288256409
0.21463828 0.72333086 0.28478768 4288256409
0.21188985 0.72086114 0.28444052 4288256409
0.21040021 0.71708226 0.28196633 4288256409
0.30003339 0.79207635 0.34387612 4293138972
0.30120492 0.79273784 0.34086218 4293138972
0.29530832 0.78650421 0.33578518 4293138972
0.25368202 0.77140057 0.30714345 4288256409
0.24831185 0.76458198 0.30293757 4288256409
0.29175401 0.78308988 0.3291457 4293138972
0.28649464 0.7783401 0.32589525 4293138972
0.25566009 0.77042687 0.3047207 4288256409
0.29467267 0.78589767 0.32899338 4293138972
0.26613742 0.77749461 0.3110044 4293138972
0.23422284 0.74340707 0.28281632 4288256409
0.24679431 0.75731128 0.28958568 4288256409
0.29040891 0.7821871 0.31634143 4293138972
0.27719712 0.77657712 0.3054958 4293138972
0.25469548 0.76366132 0.28699881 4288256409
0.30895585 0.80082035 0.28730568 4293138972
0.21157712 0.7257542 0.29366541 4288256409
0.2110164 0.72253734 0.29034054 4288256409
0.20744689 0.71999174 0.29155448 4288256409
0.2066693 0.71697766 0.28814727 4288256409
0.20523468 0.71416652 0.28538656 4288256409
0.20384757 0.71177536 0.28417251 4288256409
0.20171021 0.71021456 0.28268892 4288256409
0.19821711 0.70644742 0.28105685 4288256409
0.19408207 0.70176709 0.27640727 4288256409
0.1912443 0.69663393 0.27359641 4288256409
0.21311256 0.72375065 0.28889126 4288256409
0.2888591 0.7802121 0.34007433 4293138972
0.28427169 0.77609181 0.33492646 4293138972
0.24473001 0.75847709 0.29842597 4288256409
0.23968133 0.75240129 0.2945874 4288256409
0.20885614 0.7287814 0.30102846 4288256409
0.20822817 0.72616589 0.29873911 4288256409
0.20754263 0.72332591 0.29676655 4288256409
0.2051976 0.72035891 0.29592437 4288256409
0.20330454 0.71806937 0.29464343 4288256409
0.20124024 0.71492553 0.29326034 4288256409
0.19967327 0.71265411 0.29316911 4288256409
0.19813679 0.70866907 0.28895706 4288256409
0.19644025 0.70631248 0.28822279 4288256409
0.19420332 0.70327818 0.28655615 4288256409
0.19237843 0.70143324 0.28378001 4288256409
0.1895285 0.69819099 0.28117746 4288256409
0.18737054 0.69553286 0.28046829 4288256409
0.18523802 0.69298226 0.28055784 4288256409
0.18367597 0.68989682 0.2768715 4288256409
0.18243858 0.68721789 0.27595267 4288256409
0.18130709 0.68454182 0.2745291 4288256409
0.28377393 0.79099971 0.35327983 4293138972
0.28301567 0.78756034 0.35238853 4293138972
0.28179103 0.78138828 0.349713 4293138972
0.21424468 0.7359674 0.30217171 4288256409
0.21250017 0.73272216 0.30024448 4288256409
0.21132545 0.73008019 0.29946172 4288256409
0.21003178 0.72785014 0.29805794 4288256409
0.20798123 0.72268134 0.29421598 4288256409
0.20656122 0.72048795 0.29368919 4288256409
0.20525418 0.71791798 0.29225844 4288256409
0.20307598 0.71609879 0.2923094 4288256409
0.2024689 0.7127071 0.28878912 4288256409
0.20046431 0.70984417 0.28752825 4288256409
0.19847362 0.70718956 0.28628707 4288256409
0.19588183 0.70463926 0.28522509 4288256409
0.19242892 0.70178229 0.28112414 4288256409
0.19067146 0.69900697 0.27895579 4288256409
0.18853863 0.69642848 0.27838647 4288256409
0.18701315 0.69451922 0.2775299 4288256409
0.18628897 0.69080365 0.27478153 4288256409
0.28960022 0.79822397 0.35427544 4293138972
0.28770143 0.79630494 0.3543312 4293138972
0.28686565 0.79360396 0.35346356 4293138972
0.28596652 0.78891796 0.35200778 4293138972
0.28395325 0.78373128 0.35019466 4293138972
0.28352222 0.78146738 0.34914887 4293138972
0.21541938 0.73600715 0.29949021 4288256409
0.21376409 0.73214018 0.29754981 4288256409
0.21166256 0.72782338 0.29563025 4288256409
0.20992698 0.72594613 0.29606175 4288256409
0.21009961 0.723481 0.29305506 4288256409
0.20916879 0.72128111 0.29126912 4288256409
0.2069205 0.71806985 0.29043835 4288256409
0.20458752 0.71536505 0.29032096 4288256409
0.2036698 0.71220708 0.28675783 4288256409
0.20152514 0.71001017 0.2852788 4288256409
0.19953948 0.70783901 0.28401184 4288256409
0.19695434 0.70547742 0.28286642 4288256409
0.19433239 0.70331395 0.28252932 4288256409
0.18954375 0.69589227 0.274923 4288256409
0.18727367 0.69387698 0.27580714 4288256409
0.2917656 0.79471666 0.35298762 4293138972
0.28814897 0.79115462 0.3522445 4293138972
0.28949296 0.78709602 0.35119933 4293138972
0.22190529 0.7411865 0.2984269 4288256409
0.2208702 0.73893321 0.29784083 4288256409
0.218853 0.73632675 0.29737282 4288256409
0.21673566 0.73361844 0.29655072 4288256409
0.21518736 0.73065025 0.29563847 4288256409
0.21381278 0.72813934 0.29407078 4288256409
0.20879717 0.7193802 0.28896844 4288256409
0.29474652 0.79568923 0.35281181 4293138972
0.23626295 0.75672209 0.30389643 4288256409
0.29170653 0.78404444 0.34286326 4293138972
0.29099223 0.78276116 0.33955282 4293138972
0.24339654 0.76307684 0.30550823 4288256409
0.23871386 0.75968546 0.30514339 4288256409
0.23336272 0.75107056 0.29981565 4288256409
0.30053285 0.79557931 0.34573698 4293138972
0.28966078 0.78094488 0.33557644 4293138972
0.25409886 0.77414358 0.31162325 4288256409
0.25043437 0.77103198 0.30924839 4288256409
0.25010329 0.76945609 0.30696684 4288256409
0.24741711 0.76600897 0.30549449 4288256409
0.24568327 0.7640636 0.30401531 4288256409
0.2432553 0.76151246 0.30359778 4288256409
0.25657296 0.77364969 0.30913749 4288256409
0.30034974 0.79113793 0.33344334 4293138972
0.25233209 0.76517195 0.30041644 4288256409
0.25199676 0.76344222 0.2983329 4288256409
0.24765439 0.75993103 0.29759955 4288256409
0.19665675 0.70804614 0.29070723 4288256409
0.19438466 0.70482254 0.28913987 4288256409
0.19220285 0.70248121 0.28854644 4288256409
0.18961719 0.69894052 0.28599146 4288256409
0.18858309 0.69731057 0.28418088 4288256409
0.18626891 0.69484931 0.28309923 4288256409
0.18364847 0.69124156 0.28088504 4288256409
0.18209969 0.68867755 0.27906311 4288256409
0.18014479 0.68623221 0.27725464 4288256409
0.17833123 0.68355745 0.27619013 4288256409
0.17673242 0.68024153 0.27375463 4288256409
0.17355679 0.67720896 0.27171192 4288256409
0.19935656 0.71060658 0.29035416 4288256409
0.18590303 0.69226098 0.27780369 4288256409
0.18430531 0.68825901 0.27454391 4288256409
0.20069696 0.70811152 0.28069139 4288256409
0.30083814 0.79223526 0.31392211 4293138972
0.29080474 0.78395391 0.27010545 4293138972
0.19135617 0.70839798 0.2969335 4288256409
0.19071254 0.70600885 0.295113 4288256409
0.19004248 0.70273119 0.2926935 4288256409
0.18766758 0.69938076 0.29063961 4288256409
0.18599115 0.69637907 0.28865361 4288256409
0.18360734 0.6934014 0.2872479 4288256409
0.18208487 0.69117528 0.28635862 4288256409
0.18023796 0.68897277 0.2843799 4288256409
0.17700206 0.68538344 0.28213334 4288256409
0.17485827 0.68298596 0.28015259 4288256409
0.17035744 0.67875969 0.28018802 4288256409
0.16886094 0.67592406 0.27719289 4288256409
0.16612262 0.67271811 0.27594984 4288256409
0.16445033 0.67023295 0.27422825 4288256409
0.16461194 0.66825551 0.27274647 4288256409
0.1992341 0.71776593 0.2983875 4288256409
0.19703762 0.71350294 0.29590183 4288256409
0.19690739 0.71155131 0.29460323 4288256409
0.19292396 0.7076177 0.29412988 4288256409
0.19205236 0.70521438 0.29305375 4288256409
0.19018976 0.70155287 0.29016772 4288256409
0.18931259 0.69917071 0.28859472 4288256409
0.18755454 0.69636536 0.28658289 4288256409
0.18515137 0.69360948 0.28506988 4288256409
0.18292242 0.6910764 0.28353167 4288256409
0.18052405 0.6883533 0.28161091 4288256409
0.17868362 0.68600708 0.27975878 4288256409
0.17638777 0.6830337 0.27778819 4288256409
0.17520437 0.68045074 0.27603778 4288256409
0.17315754 0.67726272 0.2746737 4288256409
0.16804135 0.67172599 0.27174133 4288256409
0.20225431 0.72048837 0.29850531 4288256409
0.20069601 0.716483 0.29615816 4288256409
0.19891942 0.71438766 0.29486713 4288256409
0.19763966 0.71028292 0.2924121 4288256409
0.17807052 0.68058813 0.27078569 4288256409
0.18374752 0.68667775 0.27253029 4288256409
0.20565292 0.71478248 0.28760469 4288256409
0.19545043 0.70413762 0.28054708 4288256409
0.19298179 0.70161283 0.27909625 4288256409
0.29382962 0.79895973 0.35399383 4293138972
0.27963659 0.81449974 0.36079529 4293138972
0.28648826 0.80639595 0.35740399 4293138972
0.29814172 0.78952086 0.34058857 4293138972
0.25189304 0.76768756 0.30437014 4288256409
0.18408379 0.69830334 0.29338732 4288256409
0.1799334 0.69224828 0.29081801 4288256409
0.17803463 0.68986189 0.28914228 4288256409
0.17650376 0.68757206 0.28776184 4288256409
0.17453772 0.68517959 0.28690946 4288256409
0.17332137 0.68327695 0.28434169 4288256409
0.17115465 0.68029201 0.28283775 4288256409
0.16935913 0.67678839 0.28002974 4288256409
0.16650058 0.67382681 0.27868041 4288256409
0.16439651 0.67155194 0.27689049 4288256409
0.16237459 0.66898888 0.27585003 4288256409
0.16017865 0.66607797 0.27386984 4288256409
0.15488192 0.66003382 0.27148658 4288256409
0.14484824 0.65554339 0.2617209 4288256409
0.18844135 0.70348024 0.29471451 4288256409
0.18655139 0.7000128 0.29254764 4288256409
0.18475899 0.69700879 0.29141727 4288256409
0.18163125 0.69304454 0.2893545 4288256409
0.17976953 0.69032264 0.2875239 4288256409
0.17816932 0.68753636 0.28551406 4288256409
0.17571869 0.68525177 0.28435466 4288256409
0.17328979 0.68216765 0.2820262 4288256409
0.17296305 0.6805945 0.27865133 4288256409
0.1711081 0.67817354 0.27752045 4288256409
0.16830735 0.67457032 0.27577862 4288256409
0.16640237 0.67188758 0.27391106 4288256409
0.16188926 0.66761583 0.27398375 4288256409
0.16115376 0.66544068 0.27205971 4288256409
0.19441113 0.70987141 0.29548392 4288256409
0.28291544 0.79387277 0.35349995 4293138972
0.22921981 0.73695821 0.28167552 4288256409
0.24002081 0.7482574 0.28175363 4288256409
0.16325057 0.67746866 0.28989473 4288256409
0.16132894 0.6749422 0.28887317 4288256409
0.15891838 0.67213678 0.28762093 4288256409
0.15716341 0.66944069 0.28643259 4288256409
0.1557321 0.66714615 0.28444129 4288256409
0.15423709 0.66484159 0.2833946 4288256409
0.1523062 0.66225916 0.28113303 4288256409
0.15063134 0.65988582 0.28081143 4288256409
0.14738324 0.65629619 0.27801117 4288256409
0.14483763 0.65301168 0.27608988 4288256409
0.14247297 0.6502133 0.27339903 4288256409
0.13994265 0.64741707 0.27211562 4288256409
0.13753977 0.64510018 0.27041009 4288256409
0.13709769 0.64337713 0.26865608 4288256409
0.16670805 0.68051594 0.29015213 4288256409
0.16532177 0.67818332 0.28837791 4288256409
0.16365656 0.67576414 0.28713816 4288256409
0.16172272 0.67329276 0.28623408 4288256409
0.15987732 0.67094272 0.28482813 4288256409
0.15789118 0.66843593 0.28350002 4288256409
0.15596347 0.66498423 0.27968961 4288256409
0.15356727 0.66221571 0.27879527 4288256409
0.15112394 0.65907431 0.27685976 4288256409
0.14876249 0.65647 0.27581638 4288256409
0.14753008 0.65456295 0.27334645 4288256409
0.14510909 0.65154964 0.27214101 4288256409
0.17540836 0.69094414 0.29376236 4288256409
0.17288242 0.68681264 0.29110235 4288256409
0.17054677 0.68416828 0.29001045 4288256409
0.17109524 0.68267357 0.28782836 4288256409
0.16909568 0.68063349 0.28681648 4288256409
0.16633581 0.67705327 0.28479579 4288256409
0.1647872 0.67430419 0.282998 4288256409
0.16243693 0.67151964 0.28148368 4288256409
0.16035317 0.66923571 0.27958867 4288256409
0.15792677 0.6660741 0.27842683 4288256409
0.15577136 0.66321373 0.27664241 4288256409
0.15296292 0.66038299 0.27399606 4288256409
0.1500717 0.65732956 0.27197108 4288256409
0.14965357 0.65500283 0.27140996 4288256409
0.14651076 0.65199065 0.26981804 4288256409
0.13761254 0.64118326 0.26255172 4288256409
0.17780526 0.69228041 0.29255375 4288256409
0.17640573 0.68994248 0.29139644 4288256409
0.17496537 0.68784481 0.28993958 4288256409
0.17286447 0.68520176 0.28885043 4288256409
0.17172453 0.68199366 0.28538686 4288256409
0.1691792 0.67912471 0.28417736 4288256409
0.16802561 0.67692262 0.28225511 4288256409
0.16579138 0.67454106 0.28086346 4288256409
0.16382518 0.67177933 0.27933523 4288256409
0.1605404 0.6682902 0.27746165 4288256409
0.15950334 0.6665498 0.27568445 4288256409
0.15721886 0.66363305 0.27419797 4288256409
0.20121348 0.71274132 0.29068586 4288256409
0.28775817 0.8080433 0.35026056 4293138972
0.28327027 0.7742328 0.33681238 4293138972
0.22063076 0.73476994 0.29430887 4288256409
0.29846793 0.78931952 0.33723843 4293138972
0.31248358 0.80317283 0.33102155 4293138972
0.19245116 0.70405334 0.29091805 4288256409
0.27093676 0.77573913 0.29122475 4293138972
0.14035158 0.65568 0.28922975 4288256409
0.13626631 0.65017027 0.28576145 4288256409
0.13318983 0.64719462 0.28402057 4288256409
0.13478661 0.64679903 0.28197104 4288256409
0.13253425 0.64417505 0.28101608 4288256409
0.12975481 0.6406883 0.27884036 4288256409
0.12831263 0.63846594 0.27723882 4288256409
0.12650827 0.63571018 0.27562183 4288256409
0.12429547 0.63213992 0.2738108 4288256409
0.14829133 0.66424686 0.29014125 4288256409
0.14656475 0.66109782 0.28811908 4288256409
0.14316654 0.65717894 0.28693989 4288256409
0.14205216 0.65434653 0.28398558 4288256409
0.14033827 0.65189207 0.28268352 4288256409
0.13864976 0.64971942 0.28039274 4288256409
0.13606589 0.64712703 0.27971941 4288256409
0.13364848 0.6437546 0.27809852 4288256409
0.13047397 0.64030743 0.27581429 4288256409
0.1288518 0.63764954 0.27476355 4288256409
0.12648961 0.63435167 0.27391952 4288256409
0.12501779 0.63169658 0.27093259 4288256409
0.15249102 0.66792113 0.28952622 4288256409
0.15011133 0.66517049 0.28880984 4288256409
0.14904623 0.66240346 0.2866078 4288256409
0.14685585 0.65849978 0.28360912 4288256409
0.14540644 0.6557979 0.28197232 4288256409
0.14278546 0.65314853 0.2809597 4288256409
0.1406271 0.65021116 0.27845836 4288256409
0.13812093 0.64773732 0.27791482 4288256409
0.1350311 0.64508003 0.27710855 4288256409
0.13109104 0.64081198 0.27288055 4288256409
0.13008566 0.63869607 0.27264112 4288256409
0.12915771 0.63618231 0.26986575 4288256409
0.12387475 0.62963617 0.26750913 4288256409
0.16281992 0.6813032 0.29440254 4288256409
0.15884919 0.67662925 0.29338431 4288256409
0.15901093 0.67436928 0.29041672 4288256409
0.15660635 0.67123276 0.28895357 4288256409
0.15464333 0.66769296 0.28716454 4288256409
0.15212214 0.66411579 0.28529346 4288256409
0.14959936 0.66073602 0.28403091 4288256409
0.14827986 0.6581862 0.28145799 4288256409
0.14546166 0.6551609 0.27929425 4288256409
0.14317605 0.65261406 0.27804583 4288256409
0.1413895 0.65036559 0.27577338 4288256409
0.13887095 0.64795178 0.27455106 4288256409
0.13637029 0.64488411 0.27272323 4288256409
0.13311283 0.64084738 0.27079722 4288256409
0.13101995 0.63841581 0.26947421 4288256409
0.13030702 0.63625407 0.26743826 4288256409
0.12692314 0.63030636 0.26431704 4288256409
0.12366168 0.6287393 0.26192027 4288256409
0.16870055 0.68518096 0.29358387 4288256409
0.16651084 0.68252492 0.2928288 4288256409
0.12918282 0.63270193 0.26421288 4288256409
0.12533478 0.63215035 0.26001605 4288256409
0.17356466 0.69181025 0.29565278 4288256409
0.17353301 0.68877345 0.29322353 4288256409
0.17066894 0.68579489 0.29207546 4288256409
0.16873847 0.6827144 0.29062217 4288256409
0.13373779 0.63990188 0.26384509 4288256409
0.18449052 0.7022137 0.29742819 4288256409
0.18168022 0.69683546 0.29406491 4288256409
0.17956209 0.69440585 0.29320484 4288256409
0.18872733 0.70573324 0.29671115 4288256409
0.18600772 0.70141482 0.29442269 4288256409
0.18420118 0.7001245 0.29527313 4288256409
0.19417435 0.71244639 0.30008009 4288256409
0.19769795 0.71551526 0.29796299 4288256409
0.20396648 0.72191215 0.2978377 4288256409
0.19523308 0.70879102 0.29294842 4288256409
0.1946138 0.70655721 0.29176295 4288256409
0.21085261 0.73158616 0.30172625 4288256409
0.21990766 0.74028409 0.29999787 4288256409
0.21797977 0.73750299 0.29937562 4288256409
0.22970095 0.75232369 0.30477327 4288256409
0.2245117 0.74574208 0.30143651 4288256409
0.28841358 0.77944756 0.33772185 4293138972
0.23688626 0.75833565 0.30535632 4288256409
0.23436049 0.75573128 0.30473244 4288256409
0.23138353 0.75179291 0.3021293 4288256409
0.29734096 0.7898162 0.34588903 4293138972
0.28896728 0.78084707 0.32989642 4293138972
0.24935757 0.76103628 0.29617408 4288256409
0.23659734 0.74721789 0.28572774 4288256409
0.25357053 0.76439321 0.29612917 4288256409
0.29953262 0.79129004 0.31713876 4293138972
0.29344231 0.79230148 0.35167143 4293138972
0.28602061 0.77726769 0.33623996 4293138972
0.24517004 0.75597823 0.29127011 4288256409
0.29131675 0.78324646 0.31875625 4293138972
0.29059282 0.78297055 0.3128989 4293138972
0.29061651 0.78415453 0.27350456 4293138972
0.12964907 0.6426025 0.28127584 4288256409
0.1273749 0.63982397 0.27996412 4288256409
0.12616399 0.63691902 0.2778182 4288256409
0.12232069 0.63019854 0.27436715 4288256409
0.096423589 0.62630087 0.26324812 4288256409
0.12740481 0.63453203 0.27072611 4288256409
0.28913671 0.78205621 0.2739079 4293138972
0.12174709 0.63505912 0.28271562 4288256409
0.12044477 0.63242346 0.28020772 4288256409
0.11955745 0.62955379 0.27972075 4288256409
0.12548932 0.63866884 0.2815139 4288256409
0.12467354 0.63673204 0.27960223 4288256409
0.12241365 0.63305074 0.27863649 4288256409
0.124539 0.63455009 0.27754554 4288256409
0.12318537 0.63219798 0.27636573 4288256409
0.137622 0.64960521 0.28316283 4288256409
0.14598598 0.65919071 0.28603011 4288256409
0.14419629 0.65645319 0.28404042 4288256409
0.12384767 0.63017851 0.26947284 4288256409
0.12239427 0.62662315 0.26706928 4288256409
0.12474497 0.62856543 0.2660864 4288256409
0.18211427 0.6952883 0.29202247 4288256409
0.1957165 0.71282119 0.29769161 4288256409
0.22127409 0.74234766 0.30134347 4288256409
0.21397144 0.73426419 0.29880849 4288256409
0.30112454 0.79323918 0.3065972 4293138972
0.12130346 0.62596118 0.26937369 4288256409
0.12567247 0.63251984 0.2689836 4288256409
0.28481477 0.77662975 0.33064324 4293138972
0.26246619 0.77161109 0.29884258 4288256409
0.29158583 0.78487116 0.27618116 4293138972
0.11894987 0.6361298 0.28617737 4288256409
0.11844111 0.63120347 0.2816501 4288256409
0.12767318 0.64336097 0.2874555 4288256409
0.12565929 0.64062154 0.28440139 4288256409
0.12333341 0.63779145 0.28309324 4288256409
0.13784458 0.65340656 0.29038364 4288256409
0.13425311 0.65050864 0.2879391 4288256409
0.13274099 0.64836478 0.2859793 4288256409
0.13060695 0.64481372 0.28385341 4288256409
0.1273666 0.64143848 0.28238812 4288256409
0.12260242 0.62999511 0.27155623 4288256409
0.15672269 0.67366689 0.29176781 4288256409
0.16590361 0.68441051 0.29490986 4288256409
0.14211498 0.64936185 0.2703692 4288256409
0.19534229 0.71573663 0.29965839 4288256409
0.19288589 0.71088189 0.29725739 4288256409
0.28044096 0.78830111 0.35337189 4293138972
0.20177986 0.71881336 0.29691982 4288256409
0.28702882 0.80722064 0.35648409 4293138972
0.28038493 0.77831417 0.34876734 4293138972
0.20616463 0.72401983 0.29838765 4288256409
0.28373927 0.77617532 0.34319308 4293138972
0.22254384 0.74438244 0.30226162 4288256409
