# .PCD v0.7 - Point Cloud Data file format
VERSION 0.7
FIELDS x y z rgba
SIZE 4 4 4 4
TYPE F F F U
COUNT 1 1 1 1
WIDTH 1092
HEIGHT 1
VIEWPOINT 0 0 0 1 0 0 0
POINTS 1092
DATA ascii
0.26742789 0.82080466 0.30939409 4293138972
0.091601297 0.63382387 0.27232811 4288256409
0.10790288 0.65727985 0.27118298 4288256409
0.12600981 0.67445248 0.26252073 4288256409
0.19777177 0.74421722 0.28063247 4288256409
0.23234113 0.77614063 0.29106885 4288256409
0.26858443 0.82280314 0.2822915 4293138972
0.2531634 0.80005842 0.29541919 4288256409
0.25515625 0.80229259 0.29429054 4288256409
0.26696089 0.82085216 0.29422873 4293138972
0.11714626 0.66491967 0.26361445 4288256409
0.18110876 0.72698027 0.29240358 4288256409
0.27067739 0.82429379 0.27846551 4293138972
0.074822292 0.61604977 0.27025247 4288256409
0.14858422 0.69622451 0.28632617 4288256409
0.1365259 0.68590897 0.26843873 4288256409
0.17803065 0.72385579 0.29252279 4288256409
0.18171076 0.72628659 0.29361078 4288256409
0.18801501 0.73631686 0.28991485 4288256409
0.22093211 0.76886487 0.30108246 4288256409
0.24440449 0.791776 0.29918185 4288256409
0.24126185 0.78969872 0.30464283 4288256409
0.27989036 0.82495999 0.33002138 4293138972
0.25200719 0.79907721 0.29420716 4288256409
0.25080183 0.79749316 0.29112455 4288256409
0.25219798 0.79916984 0.29283515 4288256409
0.25213933 0.80006009 0.29093841 4288256409
0.08710102 0.62914079 0.2709465 4288256409
0.089100227 0.63157517 0.27160913 4288256409
0.11705596 0.66491526 0.26017925 4288256409
0.12191679 0.6703108 0.26017052 4288256409
0.15258451 0.70123374 0.27630284 4288256409
0.14186047 0.69197041 0.26784703 4288256409
0.17890601 0.72619843 0.29202884 4288256409
0.28585064 0.82525337 0.32833764 4293138972
0.24201395 0.78958964 0.30050036 4288256409
0.15351705 0.70168895 0.2874915 4288256409
0.22320494 0.77002943 0.29789981 4288256409
0.27505657 0.82809508 0.27560693 4293138972
0.082317144 0.62265199 0.26951742 4288256409
0.12314344 0.67083406 0.26328018 4288256409
0.11772069 0.66985518 0.27710733 4288256409
0.21920583 0.76475841 0.28695875 4288256409
0.21971212 0.76744527 0.28514785 4288256409
0.21306156 0.76026398 0.29379389 4288256409
0.220504 0.76768893 0.29898944 4288256409
0.2239347 0.76974267 0.28659129 4288256409
0.24119429 0.78812408 0.30039603 4288256409
0.25111091 0.80005491 0.30543756 4288256409
0.25149789 0.79878992 0.29542828 4288256409
0.26956522 0.82304215 0.28353375 4293138972
0.27145013 0.82364166 0.28158945 4293138972
0.10600124 0.65453583 0.26867294 4288256409
0.154199 0.70105875 0.28798467 4288256409
0.14010626 0.68901253 0.26761541 4288256409
0.13792662 0.6882571 0.26707697 4288256409
0.1998159 0.74795514 0.27901241 4288256409
0.24271379 0.7888214 0.29073447 4288256409
0.24799392 0.7949717 0.29078978 4288256409
0.26810399 0.82237464 0.28554159 4293138972
0.15863006 0.7054202 0.28845441 4288256409
0.21837008 0.76462883 0.28924993 4288256409
0.28996307 0.82181263 0.32157993 4293138972
0.24354465 0.78871816 0.29503533 4288256409
0.25383532 0.80225319 0.30655861 4288256409
0.20580719 0.75213301 0.28188747 4288256409
0.24426399 0.79141647 0.30327037 4288256409
0.24972537 0.79634541 0.2939598 4288256409
0.26807576 0.82154322 0.2903598 4293138972
0.26896179 0.8225233 0.28957999 4293138972
0.26704073 0.82228792 0.28661162 4293138972
0.085728168 0.62508321 0.27164784 4288256409
0.20835286 0.75375891 0.28959882 4288256409
0.2670072 0.82091475 0.31684041 4293138972
0.21124546 0.75712752 0.29344979 4288256409
0.21656097 0.76178485 0.28325638 4288256409
0.26859444 0.82225758 0.29528183 4293138972
0.19899254 0.7441203 0.28389108 4288256409
0.22163042 0.76715589 0.28701088 4288256409
0.25503382 0.80406868 0.30489111 4288256409
0.26744339 0.82151526 0.29635286 4293138972
0.27164012 0.82479203 0.27592412 4293138972
0.16115497 0.70781732 0.29019204 4288256409
0.13400945 0.68348747 0.26576683 4288256409
0.136356 0.68489224 0.2652688 4288256409
0.1496155 0.69864368 0.27316105 4288256409
0.20012392 0.74570388 0.29563874 4288256409
0.18783425 0.73399228 0.27804101 4288256409
0.21444565 0.75905168 0.2878482 4288256409
0.19771227 0.74433208 0.27882931 4288256409
0.21413587 0.7598502 0.28607467 4288256409
0.26681197 0.81985277 0.31906718 4293138972
0.25694987 0.80473512 0.30006099 4288256409
0.26711076 0.82048571 0.29701421 4293138972
0.14926131 0.69795126 0.27663845 4288256409
0.19297877 0.73852313 0.29519892 4288256409
0.16708602 0.71473801 0.27172369 4288256409
0.19053501 0.73756105 0.27729246 4288256409
0.22160058 0.76854283 0.28556862 4288256409
0.23965359 0.78548598 0.29079229 4288256409
0.11198185 0.66008145 0.26644507 4288256409
0.15618341 0.70257396 0.28957999 4288256409
0.18372887 0.73069471 0.29275841 4288256409
0.18407866 0.73079425 0.27721709 4288256409
0.22440089 0.76911706 0.28820503 4288256409
0.22935776 0.7745294 0.29229391 4288256409
0.22068225 0.77017665 0.28498539 4288256409
0.13241886 0.68074965 0.2644175 4288256409
0.19016992 0.73482716 0.29558849 4288256409
0.26610246 0.82023537 0.29254642 4293138972
0.26888654 0.82193625 0.28710318 4293138972
0.27043128 0.8230859 0.28820565 4293138972
0.084747694 0.62916666 0.26935989 4288256409
0.26295906 0.81748563 0.32324192 4293138972
0.25664452 0.80357397 0.29506442 4288256409
0.26761726 0.8219347 0.28885606 4293138972
0.14702971 0.69324666 0.28713077 4288256409
0.26370588 0.81797802 0.32327998 4293138972
0.26698369 0.82054371 0.29104874 4293138972
0.26985052 0.82294345 0.29126135 4293138972
0.26934218 0.82334423 0.28047422 4293138972
0.16081862 0.70506024 0.29131201 4288256409
0.20176326 0.74713826 0.28536546 4288256409
0.2093779 0.75432235 0.28697291 4288256409
0.25061074 0.79826903 0.3097944 4288256409
0.08216653 0.62470114 0.26841432 4288256409
0.13033849 0.67826658 0.26318431 4288256409
0.20476954 0.75084341 0.29863217 4288256409
0.22170669 0.76731545 0.28952259 4288256409
0.26769564 0.82147777 0.29332322 4293138972
0.27004704 0.82271838 0.28451034 4293138972
0.1874343 0.73297501 0.28136623 4288256409
0.13499555 0.67923218 0.28487471 4288256409
0.13847445 0.68218017 0.28443274 4288256409
0.12824747 0.67681038 0.2631233 4288256409
0.20506971 0.7443971 0.28598914 4288256409
0.26558495 0.81850946 0.32274443 4293138972
0.1006793 0.65022165 0.26313141 4288256409
0.17350297 0.71957463 0.28990492 4288256409
0.21757574 0.76438165 0.30187556 4288256409
0.22600028 0.76741993 0.28733039 4288256409
0.25798631 0.80604506 0.30186975 4293138972
0.17253043 0.71754688 0.29075834 4288256409
0.12861331 0.67597759 0.26565519 4288256409
0.16992655 0.71558797 0.29107487 4288256409
0.18866764 0.73395121 0.28504479 4288256409
0.26914451 0.82169008 0.29693455 4293138972
0.16751714 0.7143684 0.27443278 4288256409
0.23595403 0.78311443 0.30544195 4288256409
0.26968366 0.82318932 0.2938959 4293138972
0.2709249 0.82454908 0.27634689 4293138972
0.13852975 0.68518919 0.28315774 4288256409
0.17991638 0.72590768 0.28007245 4288256409
0.26568049 0.81900519 0.29563385 4293138972
0.18646406 0.73305845 0.287595 4288256409
0.26879507 0.82225817 0.30930459 4293138972
0.28443757 0.82099843 0.34381375 4293138972
0.18078817 0.72820646 0.27477083 4288256409
0.27835914 0.82758206 0.2631349 4293138972
0.16044791 0.7057839 0.28967494 4288256409
0.17633662 0.72214687 0.29197657 4288256409
0.16655041 0.7064153 0.28579605 4288256409
0.16851765 0.71513826 0.27625063 4288256409
0.26666573 0.81809253 0.30123532 4293138972
0.25843516 0.80596095 0.29290447 4288256409
0.26809356 0.82038188 0.30188012 4293138972
0.26838332 0.82114452 0.30065635 4293138972
0.18265691 0.72614962 0.27694795 4288256409
0.19451497 0.74019998 0.28062606 4288256409
0.19694042 0.74241138 0.28074911 4288256409
0.25613368 0.80461502 0.30855727 4293138972
0.16248089 0.71055585 0.2777496 4288256409
0.26912722 0.82335544 0.27751929 4293138972
0.27061662 0.82501984 0.26182178 4293138972
0.14320154 0.69293272 0.28048229 4288256409
0.18531904 0.73178023 0.28551665 4288256409
0.17521989 0.71922612 0.29231444 4288256409
0.14945424 0.69939631 0.27107835 4288256409
0.26055756 0.81463385 0.30936435 4293138972
0.26744863 0.8179509 0.29822281 4293138972
0.26723906 0.81967497 0.29908052 4293138972
0.26520929 0.81730604 0.29588988 4293138972
0.21578155 0.76230878 0.30113211 4288256409
0.25937453 0.80609375 0.29414839 4293138972
0.27193779 0.82382959 0.28240198 4293138972
0.14317296 0.68119305 0.27367425 4288256409
0.1577995 0.70716608 0.27266547 4288256409
0.17559218 0.72005272 0.27822208 4288256409
0.21184018 0.75701243 0.28120044 4288256409
0.26797336 0.81929636 0.31970772 4293138972
0.25908378 0.80599284 0.29772004 4293138972
0.26494661 0.81256908 0.29711288 4293138972
0.20719647 0.75344688 0.28863871 4288256409
0.16860227 0.71579015 0.2896623 4288256409
0.1731893 0.71869683 0.28659475 4288256409
0.16308352 0.71111888 0.27690557 4288256409
0.17760736 0.72370213 0.28111741 4288256409
0.22405331 0.76986951 0.30209735 4288256409
0.25157151 0.7991907 0.31239116 4288256409
0.26093629 0.81380498 0.30836752 4293138972
0.27049518 0.82269895 0.28572178 4293138972
0.10056972 0.64972645 0.26781753 4288256409
0.17255415 0.71917421 0.28165174 4288256409
0.19897969 0.74399179 0.29625443 4288256409
0.18345024 0.72974735 0.28473577 4288256409
0.19202411 0.73700571 0.28251222 4288256409
0.13421115 0.68122947 0.26273847 4288256409
0.17335697 0.71659142 0.29220873 4288256409
0.15238635 0.7006653 0.27852997 4288256409
0.2635186 0.81617236 0.34186587 4293138972
0.26581541 0.81804413 0.34056234 4293138972
0.20126872 0.74688298 0.28084219 4288256409
0.26751158 0.81935465 0.32107794 4293138972
0.27688646 0.82926148 0.2733036 4293138972
0.26591486 0.81746757 0.32691103 4293138972
0.1571773 0.70444608 0.27060115 4288256409
0.21570404 0.75969565 0.28341034 4288256409
0.1370528 0.68569499 0.280435 4288256409
0.11057017 0.6537351 0.26591054 4288256409
0.27563742 0.82904392 0.2744917 4293138972
0.1310723 0.6756928 0.28271368 4288256409
0.19758047 0.74329579 0.28483757 4288256409
0.15129903 0.69528067 0.28853115 4288256409
0.124086 0.67241079 0.26092133 4288256409
0.13853109 0.6857385 0.26960847 4288256409
0.18455404 0.73005217 0.29598492 4288256409
0.26609758 0.81890225 0.3415688 4293138972
0.25729454 0.80289346 0.29153308 4288256409
0.19958831 0.74601388 0.29434493 4288256409
0.26150867 0.80728406 0.29804122 4293138972
0.12099447 0.6646356 0.27924377 4288256409
0.12411907 0.66665792 0.28010738 4288256409
0.11912595 0.66679984 0.26155522 4288256409
0.17030992 0.71617192 0.28486282 4288256409
0.24363276 0.79250789 0.30952305 4288256409
0.17825229 0.69935369 0.26907551 4288256409
0.25977191 0.80674905 0.29875591 4293138972
0.26682359 0.81905043 0.3092269 4293138972
0.25764453 0.80673748 0.30830199 4293138972
0.26593417 0.81909555 0.31368455 4293138972
0.26616928 0.81372023 0.29757035 4293138972
0.26344246 0.80885786 0.2940706 4293138972
0.13713937 0.68411052 0.26995763 4288256409
0.14765134 0.6962353 0.27215561 4288256409
0.242503 0.78949338 0.30617213 4288256409
0.24106501 0.7894336 0.30913308 4288256409
0.26192382 0.81307745 0.30475476 4293138972
0.12992407 0.68050855 0.27987042 4288256409
0.25716752 0.80658752 0.30597004 4293138972
0.26114047 0.80880302 0.30193087 4293138972
0.2408715 0.7878859 0.30516618 4288256409
0.26792032 0.8172636 0.32322592 4293138972
0.2549516 0.80263031 0.30994678 4288256409
0.2555761 0.80343914 0.3130829 4293138972
0.2703982 0.82410562 0.29064903 4293138972
0.12157748 0.67095137 0.27638939 4288256409
0.21931916 0.76315922 0.2844598 4288256409
0.12897767 0.6761412 0.27298972 4288256409
0.17724493 0.72213989 0.2771506 4288256409
0.17618157 0.7104798 0.27253556 4288256409
0.2614907 0.80673122 0.29353628 4293138972
0.11538601 0.65834391 0.27857172 4288256409
0.28355601 0.82158983 0.34592727 4293138972
0.24368773 0.7903915 0.31108189 4288256409
0.12153548 0.66972709 0.27593893 4288256409
0.14382647 0.69434893 0.28013185 4288256409
0.23952477 0.78640217 0.30793127 4288256409
0.27594087 0.82970029 0.27876434 4293138972
0.13184491 0.67002892 0.26708567 4288256409
0.25644422 0.80210632 0.31411269 4293138972
0.13489248 0.68120378 0.26806012 4288256409
0.13698579 0.68453544 0.26199928 4288256409
0.14664651 0.69006717 0.26312238 4288256409
0.15759689 0.69044888 0.27736086 4288256409
0.24964251 0.79489052 0.28903058 4288256409
0.12564151 0.67229003 0.26289076 4288256409
0.22890545 0.77419347 0.30387476 4288256409
0.13258737 0.68149585 0.2736862 4288256409
0.18705371 0.72624087 0.29301673 4288256409
0.20646188 0.75120699 0.28596792 4288256409
0.11664095 0.66672033 0.27484331 4288256409
0.1450409 0.69287628 0.27290377 4288256409
0.28459403 0.83411717 0.29611677 4293138972
0.17124926 0.71743894 0.27814034 4288256409
0.18879662 0.72194368 0.2885263 4288256409
0.19375473 0.73858345 0.27866042 4288256409
0.21937215 0.76099229 0.28922108 4288256409
0.20511518 0.74896282 0.2835933 4288256409
0.25330961 0.79917401 0.31331912 4288256409
0.26697716 0.81947017 0.32286209 4293138972
0.20545718 0.74739712 0.28205687 4288256409
0.23381642 0.77946472 0.30632776 4288256409
0.24870138 0.79411173 0.31075165 4288256409
0.27759948 0.82796526 0.26542601 4293138972
0.13374212 0.68069041 0.27345508 4288256409
0.19686559 0.74138212 0.2969825 4288256409
0.22098505 0.76663601 0.30380255 4288256409
0.14170155 0.69103926 0.27908599 4288256409
0.26919708 0.82247853 0.29853413 4293138972
0.27634025 0.82923341 0.27641433 4293138972
0.26708573 0.81977975 0.34486794 4293138972
0.22331241 0.76887906 0.3051756 4288256409
0.14612752 0.68079829 0.27081114 4288256409
0.22718926 0.77180046 0.3060295 4288256409
0.22682348 0.77079237 0.3034285 4288256409
0.22939442 0.7745204 0.30590868 4288256409
0.1204131 0.66293091 0.27945948 4288256409
0.13168505 0.6723507 0.27323967 4288256409
0.2500588 0.79576999 0.3132343 4288256409
0.25852939 0.8080669 0.30767041 4293138972
0.11476679 0.66084957 0.26084289 4288256409
0.21813728 0.76401097 0.30347964 4288256409
0.27800286 0.83041614 0.27970287 4293138972
0.27761716 0.83084929 0.27448505 4293138972
0.1483463 0.69632375 0.26891521 4288256409
0.20063764 0.74378419 0.29806352 4288256409
0.19653185 0.74099261 0.29774097 4288256409
0.15324648 0.68810213 0.2778936 4288256409
0.20259881 0.7463035 0.29832846 4288256409
0.20962869 0.75492597 0.30089968 4288256409
0.096427344 0.64597559 0.26483715 4288256409
0.12174176 0.66838229 0.26144063 4288256409
0.14563653 0.69059616 0.26291537 4288256409
0.14687511 0.68438536 0.27593717 4288256409
0.21394894 0.75939536 0.302477 4288256409
0.2600925 0.81032789 0.31002441 4293138972
0.26595831 0.81822282 0.34508571 4293138972
0.075218827 0.62295306 0.26397347 4288256409
0.14309488 0.68970352 0.2650364 4288256409
0.21100338 0.75421983 0.28041935 4288256409
0.26730433 0.81907171 0.31243297 4293138972
0.12600097 0.66722417 0.27155134 4288256409
0.13676442 0.67261916 0.26604283 4288256409
0.14207175 0.67769521 0.27357122 4288256409
0.27852178 0.83006346 0.2773487 4293138972
0.12426462 0.67466432 0.27765903 4288256409
0.1641423 0.71105593 0.28994241 4288256409
0.1727936 0.71702617 0.27483001 4288256409
0.20540461 0.74977529 0.29976299 4288256409
0.18132716 0.72271872 0.27615309 4288256409
0.18251568 0.72475088 0.27761689 4288256409
0.26292527 0.81610525 0.34319824 4293138972
0.26479694 0.81681085 0.34390163 4293138972
0.22386204 0.76647788 0.30454907 4288256409
0.2625277 0.81722695 0.31908232 4293138972
0.25873351 0.80925566 0.31016186 4293138972
0.26414129 0.81438458 0.3059049 4293138972
0.26502129 0.816953 0.34567124 4293138972
0.26440498 0.81025785 0.29362151 4293138972
0.17961043 0.7173872 0.2729696 4288256409
0.23905319 0.78434056 0.30977076 4288256409
0.13646361 0.67174232 0.26341695 4288256409
0.22882801 0.77080393 0.30590108 4288256409
0.27740452 0.82914591 0.27087292 4293138972
0.11919624 0.6632449 0.26976106 4288256409
0.12350583 0.66413218 0.26431003 4288256409
0.12793925 0.66547209 0.26825014 4288256409
0.2749677 0.82985032 0.26690108 4293138972
0.081144452 0.62092733 0.27033439 4288256409
0.07760638 0.627496 0.26514232 4288256409
0.15483804 0.69084018 0.27834636 4288256409
0.2347751 0.77950931 0.30841768 4288256409
0.23753572 0.78257757 0.30877355 4288256409
0.24285188 0.78777373 0.31255078 4288256409
0.2452703 0.78973395 0.31096038 4288256409
0.22643137 0.76745909 0.28588834 4288256409
0.08205916 0.62858677 0.26589453 4288256409
0.21688585 0.76087701 0.30357507 4288256409
0.2312922 0.77440268 0.3066951 4288256409
0.23336425 0.77693087 0.30779433 4288256409
0.11990382 0.65783352 0.26315486 4288256409
0.12696639 0.66972238 0.27259818 4288256409
0.074298747 0.62207919 0.26104662 4288256409
0.081014656 0.62729299 0.26612824 4288256409
0.20556323 0.74841666 0.30092585 4288256409
0.15273026 0.68404478 0.26445463 4288256409
0.083707571 0.62436408 0.27022243 4288256409
0.087221958 0.62722182 0.27182439 4288256409
0.12531476 0.66848803 0.28144503 4288256409
0.187729 0.73129684 0.29542404 4288256409
0.16045001 0.70854068 0.29099533 4288256409
0.092814088 0.63273108 0.27318627 4288256409
0.15756284 0.703605 0.27107838 4288256409
0.16075511 0.70752299 0.27249041 4288256409
0.19293837 0.73528755 0.29663947 4288256409
0.1646799 0.70939422 0.27308062 4288256409
0.20976393 0.75240326 0.30215141 4288256409
0.2106299 0.75508636 0.30219355 4288256409
0.23827761 0.78198189 0.30993482 4288256409
0.17181495 0.71489161 0.29277024 4288256409
0.16084658 0.70300859 0.26852068 4288256409
0.1713533 0.71371931 0.29302269 4288256409
0.13666494 0.68419254 0.26579577 4288256409
0.15223548 0.6999191 0.27082145 4288256409
0.18386678 0.72689635 0.29426467 4288256409
0.19192317 0.73381448 0.29591966 4288256409
0.24110104 0.78430313 0.31123221 4288256409
0.25179735 0.79572141 0.31431064 4288256409
0.16934241 0.71317631 0.29164907 4288256409
0.15307283 0.70069212 0.2736381 4288256409
0.16010988 0.70757961 0.27551273 4288256409
0.16791081 0.71186125 0.27298403 4288256409
0.20392805 0.74669057 0.29997897 4288256409
0.19908567 0.74027365 0.28116888 4288256409
0.2591989 0.80604833 0.3149747 4293138972
0.27929106 0.82914197 0.26939711 4293138972
0.13182616 0.67817116 0.26491639 4288256409
0.17946734 0.72288686 0.29404309 4288256409
0.21359892 0.75746489 0.30324426 4288256409
0.1313246 0.67777503 0.26663521 4288256409
0.13786122 0.68552005 0.26782477 4288256409
0.14381495 0.69147545 0.26909882 4288256409
0.14281128 0.69077218 0.27101392 4288256409
0.17590399 0.71917605 0.29372689 4288256409
0.14782058 0.69553643 0.27078885 4288256409
0.14950497 0.69745678 0.27316195 4288256409
0.17441322 0.7194792 0.27795041 4288256409
0.1967739 0.73949951 0.28090137 4288256409
0.079679467 0.61828572 0.26979312 4288256409
0.08028353 0.62397665 0.26735041 4288256409
0.079409696 0.62608415 0.26437038 4288256409
0.11942052 0.66115868 0.28020653 4288256409
0.13585775 0.68342388 0.26668042 4288256409
0.17937283 0.7211023 0.29436627 4288256409
0.12806037 0.665847 0.26622334 4288256409
0.19056851 0.73301816 0.27802742 4288256409
0.27599058 0.82874072 0.35865217 4293138972
0.079113364 0.62247974 0.26675698 4288256409
0.075548872 0.62677956 0.26441818 4288256409
0.14155191 0.68914104 0.26945785 4288256409
0.16136806 0.70881206 0.27529329 4288256409
0.13789348 0.67546093 0.269775 4288256409
0.17427881 0.70512688 0.27599427 4288256409
0.091132887 0.63180095 0.27281475 4288256409
0.10092915 0.64176768 0.27406898 4288256409
0.16083616 0.7032094 0.29144534 4288256409
0.126643 0.66928262 0.27874187 4288256409
0.24657471 0.79004014 0.31254372 4288256409
0.17528188 0.71696919 0.29350656 4288256409
0.12480778 0.66619915 0.28164157 4288256409
0.12677385 0.66694933 0.28157681 4288256409
0.1776271 0.71726865 0.29375765 4288256409
0.18476933 0.73060668 0.28233325 4288256409
0.26614326 0.81867462 0.31893152 4293138972
0.075047769 0.6253112 0.2617642 4288256409
0.13249573 0.6831314 0.279888 4288256409
0.16991977 0.71191204 0.29333061 4288256409
0.17330398 0.71415228 0.29363757 4288256409
0.14152673 0.67310071 0.26669726 4288256409
0.19700406 0.73942941 0.2979188 4288256409
0.25978035 0.80787355 0.31501123 4293138972
0.10766701 0.64887995 0.27605638 4288256409
0.14015046 0.68754154 0.26902494 4288256409
0.20094898 0.74184722 0.29983297 4288256409
0.19286412 0.73813659 0.28337812 4288256409
0.22629769 0.76806128 0.30599797 4288256409
0.25591066 0.7998817 0.3161197 4288256409
0.25675479 0.80301774 0.31630909 4293138972
0.26041913 0.80779582 0.31754497 4293138972
0.26525244 0.81715047 0.31419936 4293138972
0.13387285 0.68064588 0.26593056 4288256409
0.1367273 0.6828711 0.26707676 4288256409
0.14653234 0.69420737 0.27395201 4288256409
0.1952541 0.73784143 0.29693073 4288256409
0.21087426 0.75357151 0.30268738 4288256409
0.21585424 0.75891322 0.30355397 4288256409
0.19712852 0.73739135 0.29795322 4288256409
0.12395275 0.66454643 0.28071076 4288256409
0.12880673 0.66939861 0.2822454 4288256409
0.13101974 0.6733855 0.28316933 4288256409
0.16203929 0.70278811 0.29271352 4288256409
0.15952276 0.70706546 0.2736761 4288256409
0.17045565 0.71682268 0.27717885 4288256409
0.14218317 0.68087512 0.27783042 4288256409
0.15287232 0.68157226 0.26674137 4288256409
0.26719838 0.81912196 0.32411084 4293138972
0.097655512 0.63931245 0.27392226 4288256409
0.13237993 0.67334443 0.28428778 4288256409
0.15421401 0.70198828 0.27411717 4288256409
0.15797313 0.70642948 0.27464792 4288256409
0.16521615 0.70545805 0.28787884 4288256409
0.15411602 0.70302874 0.27320933 4288256409
0.18521203 0.72657043 0.29513675 4288256409
0.095448613 0.63679618 0.27341932 4288256409
0.1414509 0.67214656 0.26362503 4288256409
0.17832972 0.71812195 0.27559486 4288256409
0.08312317 0.62228435 0.27098545 4288256409
0.20204 0.7419256 0.30059844 4288256409
0.092076316 0.64040005 0.26659095 4288256409
0.27918389 0.828659 0.26615816 4293138972
0.11409209 0.65647757 0.27789131 4288256409
0.2000498 0.74043638 0.29896605 4288256409
0.11294965 0.65488499 0.27767667 4288256409
0.20311603 0.7447347 0.30117589 4288256409
0.21485552 0.75522238 0.30297711 4288256409
0.15606548 0.70495892 0.27506053 4288256409
0.16089855 0.70881432 0.27818859 4288256409
0.19097315 0.73545206 0.28079236 4288256409
0.22043709 0.76272267 0.30543196 4288256409
0.21888894 0.7595765 0.30588934 4288256409
0.23033744 0.7730208 0.30871585 4288256409
0.23563854 0.77845627 0.30991274 4288256409
0.11191694 0.65363789 0.27765828 4288256409
0.18340126 0.72780037 0.27915397 4288256409
0.26539335 0.81699038 0.34779665 4293138972
0.2658186 0.81766331 0.31734377 4293138972
0.18446535 0.72574866 0.29738945 4288256409
0.14391688 0.69197088 0.27370048 4288256409
0.15589829 0.70076668 0.26877418 4288256409
0.25071162 0.79583526 0.31680006 4288256409
0.23641013 0.778036 0.31026652 4288256409
0.13610552 0.67614412 0.28521749 4288256409
0.13610901 0.68680084 0.27869561 4288256409
0.18211351 0.72690225 0.27975953 4288256409
0.26243693 0.81597209 0.34496108 4293138972
0.26604119 0.81796211 0.32623145 4293138972
0.17913932 0.71328157 0.2724109 4288256409
0.26594973 0.81786799 0.32021457 4293138972
0.082756408 0.62050128 0.27208689 4288256409
0.20118932 0.74106413 0.28085643 4288256409
0.17190303 0.71063453 0.2898609 4288256409
0.27930567 0.82973194 0.27226129 4293138972
0.17758393 0.72372943 0.28285843 4288256409
0.26145262 0.81021392 0.31701979 4293138972
0.2803044 0.8354305 0.30963355 4293138972
0.28212005 0.83604193 0.3052755 4293138972
0.155687 0.70425594 0.27266189 4288256409
0.22134991 0.76410562 0.29498407 4288256409
0.25908759 0.8044793 0.3183479 4293138972
0.20763227 0.74965882 0.28237292 4288256409
0.14256223 0.68975371 0.26847965 4288256409
0.13843362 0.68722224 0.26743439 4288256409
0.27890566 0.83346772 0.32986414 4293138972
0.27689636 0.8321805 0.33062938 4293138972
0.15077399 0.68626213 0.27969453 4288256409
0.2228941 0.76788348 0.29117504 4288256409
0.09443339 0.63499206 0.27366447 4288256409
0.15520373 0.68897992 0.27514538 4288256409
0.26574153 0.81649047 0.31723967 4293138972
0.15875216 0.68991411 0.27348775 4288256409
0.14018397 0.67984718 0.2877374 4288256409
0.15193251 0.68978077 0.28424481 4288256409
0.20479463 0.7446112 0.28043956 4288256409
0.085503884 0.63754267 0.26057458 4288256409
0.18897536 0.73150295 0.27788836 4288256409
0.11077879 0.65186077 0.27763298 4288256409
0.26423237 0.81583524 0.34889558 4293138972
0.27809894 0.83356482 0.32013038 4293138972
0.28023136 0.83351135 0.28857541 4293138972
0.24904999 0.7937867 0.31410035 4288256409
0.13842002 0.67781132 0.28580055 4288256409
0.14442448 0.67899138 0.27566925 4288256409
0.17830315 0.72243524 0.27836311 4288256409
0.15506947 0.7020998 0.27418947 4288256409
0.17443626 0.71793789 0.27592126 4288256409
0.1338871 0.68090725 0.26968306 4288256409
0.13143149 0.67158067 0.2839883 4288256409
0.13433087 0.67374277 0.28459126 4288256409
0.27885312 0.83424556 0.31768158 4293138972
0.18833469 0.72968721 0.27678952 4288256409
0.19447304 0.73394674 0.27744848 4288256409
0.087943718 0.62726074 0.27351668 4288256409
0.19004326 0.73472106 0.28079423 4288256409
0.23258482 0.7739138 0.30937085 4288256409
0.26231202 0.81535214 0.31983304 4293138972
0.27902195 0.83451039 0.31416571 4293138972
0.14217883 0.69043428 0.27261007 4288256409
0.14940135 0.69782424 0.2722933 4288256409
0.19240952 0.73260695 0.2983194 4288256409
0.18756106 0.72770166 0.27576301 4288256409
0.27513009 0.83029544 0.35369784 4293138972
0.25079367 0.79229003 0.31408614 4288256409
0.16675773 0.70884562 0.28749242 4288256409
0.1353175 0.67360067 0.28699386 4288256409
0.15214877 0.70078546 0.2746222 4288256409
0.14345933 0.68402302 0.28247342 4288256409
0.13188559 0.67057532 0.28535199 4288256409
0.14717424 0.69449222 0.2705372 4288256409
0.15853694 0.69859874 0.28521967 4288256409
0.14552343 0.69401598 0.27031198 4288256409
0.15094303 0.6993522 0.2722542 4288256409
0.26563299 0.81775165 0.3507311 4293138972
0.27533588 0.83089364 0.34985393 4293138972
0.13928759 0.68742269 0.2719118 4288256409
0.26473406 0.81609595 0.35069528 4293138972
0.27838823 0.83513921 0.32927051 4293138972
0.27984044 0.83563972 0.31129056 4293138972
0.17636864 0.70137775 0.27421805 4288256409
0.085488118 0.62367457 0.27371949 4288256409
0.1145234 0.65569997 0.27868548 4288256409
0.11033209 0.6636343 0.27607089 4288256409
0.26333168 0.81472218 0.35086706 4293138972
0.27876979 0.83498287 0.31982616 4293138972
0.10735846 0.65295428 0.26067525 4288256409
0.15825458 0.69396687 0.28304881 4288256409
0.1025358 0.65189385 0.2696659 4288256409
0.24367712 0.78625178 0.31308559 4288256409
0.18559131 0.72526473 0.29760906 4288256409
0.16116598 0.69703907 0.2850697 4288256409
0.20327726 0.74085176 0.28546405 4288256409
0.16332038 0.69900256 0.28565589 4288256409
0.22177921 0.7635681 0.30796179 4288256409
0.27823219 0.83458441 0.32569152 4293138972
0.18529506 0.7245267 0.29716879 4288256409
0.16992602 0.70907938 0.29519114 4288256409
0.12403876 0.6634599 0.28193194 4288256409
0.19079319 0.72836035 0.29733127 4288256409
0.1092626 0.65570867 0.26246893 4288256409
0.26254112 0.81267047 0.31836972 4293138972
0.25626057 0.79995781 0.31940824 4288256409
0.28254929 0.83734035 0.296983 4293138972
0.25541824 0.79820681 0.31981295 4288256409
0.12098265 0.66045195 0.2817955 4288256409
0.095388398 0.64216906 0.26748326 4288256409
0.095235504 0.64415967 0.26818079 4288256409
0.25319591 0.79578066 0.31687334 4288256409
0.16350897 0.702546 0.29323894 4288256409
0.093403794 0.6389389 0.26381034 4288256409
0.12818076 0.67281461 0.27911064 4288256409
0.18170401 0.72088093 0.29530138 4288256409
0.074414216 0.62256551 0.26567948 4288256409
0.12010918 0.65912706 0.28211072 4288256409
0.094033509 0.63235033 0.27481574 4288256409
0.10272492 0.64314079 0.27603373 4288256409
0.11434028 0.6559236 0.26032552 4288256409
0.18486722 0.72291386 0.29555875 4288256409
0.098760277 0.64507192 0.26656708 4288256409
0.11734238 0.65651101 0.28097722 4288256409
0.11458524 0.65398908 0.28006166 4288256409
0.16150376 0.6999172 0.29499361 4288256409
0.26231027 0.81242645 0.32171392 4293138972
0.25930128 0.80472207 0.32190636 4293138972
0.26040843 0.80670387 0.32262787 4293138972
0.096526548 0.63561469 0.2746101 4288256409
0.15812078 0.69680053 0.29479322 4288256409
0.26429948 0.81725103 0.32443234 4293138972
0.26279908 0.81075257 0.32127324 4293138972
0.20551935 0.74433571 0.30250788 4288256409
0.21489051 0.75225639 0.30386442 4288256409
0.11138774 0.65078634 0.27959207 4288256409
0.086957164 0.62420964 0.27548757 4288256409
0.15969709 0.69778389 0.29477242 4288256409
0.10583276 0.64760739 0.26149872 4288256409
0.26885313 0.82598883 0.27882612 4293138972
0.10150317 0.64100885 0.27648178 4288256409
0.10658872 0.64532894 0.27894232 4288256409
0.16979665 0.70861489 0.29679078 4288256409
0.098687902 0.63554084 0.27619821 4288256409
0.10991341 0.65117556 0.26020014 4288256409
0.12635854 0.66540337 0.28366989 4288256409
0.17268144 0.71184903 0.29737258 4288256409
0.22244199 0.76220226 0.30745825 4288256409
0.25626752 0.79923713 0.32261482 4288256409
0.25704855 0.8011325 0.32379702 4293138972
0.26172423 0.80753279 0.32434845 4293138972
0.08303833 0.622702 0.27322918 4288256409
0.20557919 0.74298531 0.3024472 4288256409
0.22173283 0.76054698 0.30822948 4288256409
0.16770434 0.7056371 0.29681462 4288256409
0.2257646 0.76492184 0.3088409 4288256409
0.10175008 0.64844066 0.26935592 4288256409
0.10595366 0.64858431 0.26404458 4288256409
0.27213439 0.81213623 0.35762963 4293138972
0.27337429 0.81306219 0.35941744 4293138972
0.24572082 0.78739673 0.31573343 4288256409
0.24999446 0.79016238 0.31634977 4288256409
0.25350434 0.79254103 0.31803942 4288256409
0.12331413 0.66133904 0.26440826 4288256409
0.1940327 0.73104799 0.29840693 4288256409
0.10578381 0.64629644 0.27695242 4288256409
0.12890474 0.6673938 0.28508061 4288256409
0.17321344 0.71087068 0.29832733 4288256409
0.18743432 0.72587907 0.30051494 4288256409
0.22809047 0.76838446 0.30899853 4288256409
0.11597619 0.65874308 0.27017981 4288256409
0.11868344 0.65724081 0.282298 4288256409
0.16957533 0.70664829 0.29717276 4288256409
0.23463908 0.7752834 0.313225 4288256409
0.26270097 0.80817872 0.32710946 4293138972
0.10127766 0.64510578 0.26625991 4288256409
0.23427629 0.77211064 0.31036833 4288256409
0.10659637 0.6504879 0.27092853 4288256409
0.22963518 0.76672447 0.30989873 4288256409
0.082233496 0.62193942 0.27413595 4288256409
0.084715843 0.62204248 0.2746205 4288256409
0.21069629 0.74852175 0.30518493 4288256409
0.2744388 0.83056456 0.34640121 4293138972
0.20183319 0.73901242 0.30058447 4288256409
0.20519136 0.74289584 0.30526614 4288256409
0.26413324 0.81442279 0.35238835 4293138972
0.18754737 0.7245791 0.29760751 4288256409
0.27307427 0.81044507 0.35821968 4293138972
0.20937121 0.74651736 0.30805647 4288256409
0.26739836 0.81405294 0.35504758 4293138972
0.11479574 0.65657949 0.26451498 4288256409
0.16453826 0.70248044 0.2963171 4288256409
0.26931643 0.81227964 0.35625577 4293138972
0.083428882 0.61951637 0.27487224 4288256409
0.11166687 0.6555137 0.26964611 4288256409
0.15999803 0.6873728 0.27091414 4288256409
0.26392031 0.81377602 0.32651904 4293138972
0.20702928 0.74502355 0.30680752 4288256409
0.18560164 0.73036289 0.28099647 4288256409
0.24267811 0.78324658 0.31503129 4288256409
0.16675405 0.70431137 0.2978512 4288256409
0.23949295 0.78025168 0.31528452 4288256409
0.2753579 0.8144868 0.36339259 4293138972
0.21650681 0.75446302 0.30683896 4288256409
0.14666021 0.68377554 0.29215124 4288256409
0.14877491 0.686553 0.29226154 4288256409
0.20498095 0.74134439 0.30071732 4288256409
0.20335212 0.74115944 0.30577201 4288256409
0.23627976 0.77383357 0.31173801 4288256409
0.080057368 0.62113273 0.27320942 4288256409
0.19888018 0.73662049 0.30052242 4288256409
0.20245029 0.7386899 0.30222189 4288256409
0.20096457 0.73868078 0.30517778 4288256409
0.140063 0.67944664 0.28940511 4288256409
0.15613031 0.69382024 0.29519427 4288256409
0.11310738 0.65172833 0.28079382 4288256409
0.11565466 0.65430039 0.28099471 4288256409
0.11808995 0.65602738 0.28210324 4288256409
0.096602507 0.63329351 0.27796957 4288256409
0.096346699 0.6354382 0.27746108 4288256409
0.14101951 0.677342 0.28794429 4288256409
0.197211 0.73382354 0.29935458 4288256409
0.17513178 0.71213698 0.29864126 4288256409
0.089065596 0.62722504 0.27562669 4288256409
0.18079931 0.71814221 0.29932743 4288256409
0.13114607 0.66845632 0.28762108 4288256409
0.12949337 0.66709501 0.2866199 4288256409
0.14267249 0.68052375 0.29099905 4288256409
0.12631623 0.66296005 0.28531286 4288256409
0.09946271 0.63929075 0.27827218 4288256409
0.13027252 0.66596985 0.28781834 4288256409
0.2160093 0.75567341 0.30881888 4288256409
0.22190358 0.7578705 0.30684391 4288256409
0.12538932 0.66352153 0.28658956 4288256409
0.1283568 0.66447508 0.28699395 4288256409
0.25399157 0.79550415 0.3237161 4288256409
0.17722835 0.71537614 0.29981211 4288256409
0.27018726 0.81056356 0.35666761 4293138972
0.090311952 0.62653238 0.27632129 4288256409
0.17308165 0.70902544 0.29865012 4288256409
0.18883438 0.72605503 0.30217353 4288256409
0.26421797 0.81570518 0.33265033 4293138972
0.26487643 0.81302333 0.32977223 4293138972
0.11309122 0.65048879 0.28180933 4288256409
0.11768146 0.65341043 0.28409374 4288256409
0.263585 0.8129254 0.35329476 4293138972
0.26591134 0.81281841 0.35409573 4293138972
0.23931676 0.77820611 0.31370717 4288256409
0.24804881 0.78479666 0.31455025 4288256409
0.10545208 0.64453602 0.27976325 4288256409
0.11518796 0.65150058 0.28290629 4288256409
0.17241676 0.70121807 0.26704666 4288256409
0.083645426 0.62092263 0.27233186 4288256409
0.27158698 0.8087551 0.35738781 4293138972
0.081550151 0.62068439 0.26771769 4288256409
0.082297482 0.61920393 0.27628395 4288256409
0.10828242 0.64548582 0.28062055 4288256409
0.14952524 0.68616652 0.29433811 4288256409
0.26803279 0.81117022 0.35495365 4293138972
0.095059559 0.63089848 0.27808475 4288256409
0.17851734 0.7097013 0.28464383 4288256409
0.092576675 0.62810862 0.27704841 4288256409
0.08617001 0.6224972 0.27565375 4288256409
0.088368982 0.62381828 0.2764422 4288256409
0.091712244 0.62622243 0.27708185 4288256409
0.079528615 0.62313884 0.26299462 4288256409
0.27385005 0.80887848 0.3588568 4293138972
0.178461 0.7219137 0.29247969 4288256409
0.088810079 0.62172085 0.27793559 4288256409
0.09038315 0.62449741 0.27744755 4288256409
0.078244455 0.62138075 0.27317011 4288256409
0.084471382 0.61886275 0.27722222 4288256409
0.27423286 0.81243789 0.36219925 4293138972
0.079867065 0.61880952 0.2748152 4288256409
0.27376464 0.8102687 0.36213589 4293138972
0.27570456 0.81206161 0.36387944 4293138972
0.20093215 0.73628294 0.30062854 4288256409
0.1808667 0.71618211 0.28778461 4288256409
0.27681968 0.83230036 0.33734074 4293138972
0.28355876 0.83729941 0.30924326 4293138972
0.19042273 0.72932273 0.29296476 4288256409
0.1963758 0.73056263 0.2999455 4288256409
0.26415622 0.80957544 0.32878518 4293138972
0.17983888 0.7134155 0.28155306 4288256409
0.16450237 0.70700562 0.28716615 4288256409
0.19271547 0.72269315 0.28072205 4288256409
0.10061116 0.63747913 0.27801308 4288256409
0.095624305 0.62872344 0.27753162 4288256409
0.20560203 0.74273384 0.30699208 4288256409
0.18605933 0.72709727 0.28861243 4288256409
0.09771271 0.63335764 0.27824378 4288256409
0.1071031 0.64092326 0.28156024 4288256409
0.12598705 0.66177821 0.2866765 4288256409
0.10184334 0.63599849 0.27934694 4288256409
0.2778742 0.83334398 0.29396966 4293138972
0.10497512 0.63886893 0.28077659 4288256409
0.18377277 0.71918273 0.29885042 4288256409
0.2095595 0.75187558 0.29884419 4288256409
0.11068616 0.64430237 0.28299966 4288256409
0.28097606 0.83578855 0.30040729 4293138972
0.27605885 0.83304513 0.34679317 4293138972
0.27660608 0.8339467 0.34163225 4293138972
0.2072362 0.74613774 0.2955322 4288256409
0.17909409 0.71178371 0.27885154 4288256409
0.10018209 0.63396776 0.27934206 4288256409
0.13138141 0.66766411 0.28855732 4288256409
0.089380294 0.62223989 0.2782571 4288256409
0.27621293 0.83257419 0.34297869 4293138972
0.28237209 0.8367098 0.29117963 4293138972
0.15508208 0.69076365 0.29379025 4288256409
0.27403957 0.80896252 0.36498994 4293138972
0.18135929 0.71746784 0.2990683 4288256409
0.27502924 0.83224171 0.34065795 4293138972
0.27498892 0.80715102 0.35896534 4293138972
0.15119076 0.69612586 0.28576332 4288256409
0.093903713 0.62995738 0.2766313 4288256409
0.25388828 0.7940132 0.32297322 4288256409
0.27161554 0.82956082 0.34631568 4293138972
0.2756252 0.83350867 0.35768035 4293138972
0.15956286 0.71318597 0.29041773 4288256409
0.27819225 0.83781433 0.32787967 4293138972
0.15738283 0.70997286 0.29208499 4288256409
0.10014043 0.65310752 0.26566425 4288256409
0.1618387 0.71298695 0.29256499 4288256409
0.15325087 0.70564884 0.29201293 4288256409
0.16343616 0.71586305 0.29151252 4288256409
0.29040614 0.83478272 0.268812 4293138972
0.097842336 0.65170985 0.26220658 4288256409
0.2785055 0.81555551 0.26708782 4293138972
0.28092706 0.81345087 0.26480922 4293138972
0.11409255 0.66478324 0.26083672 4288256409
0.25883558 0.81701332 0.32133567 4293138972
0.096866362 0.65197408 0.26955748 4288256409
0.11934312 0.66989136 0.2684103 4288256409
0.26482758 0.8126623 0.33610466 4293138972
0.27730969 0.83681446 0.3416782 4293138972
0.098014362 0.65116411 0.26043573 4288256409
0.10416014 0.65698338 0.26844639 4288256409
0.093654096 0.64998138 0.26987883 4288256409
0.080728889 0.63932759 0.26128036 4288256409
0.079221666 0.63676912 0.26920259 4288256409
0.26376364 0.80595177 0.33312908 4293138972
0.27510536 0.80607706 0.26236796 4293138972
0.11802063 0.6718657 0.26850981 4288256409
0.12407087 0.67444474 0.26556849 4288256409
0.10279974 0.65683204 0.27210853 4288256409
0.085276149 0.64148891 0.2616452 4288256409
0.10994426 0.66423327 0.27061453 4288256409
0.10686409 0.65884119 0.27052706 4288256409
0.081341408 0.62998611 0.27456436 4288256409
0.078273483 0.63700235 0.26069161 4288256409
0.08863245 0.64434057 0.26392981 4288256409
0.24244095 0.78023386 0.31606004 4288256409
0.25438604 0.79077929 0.31937528 4288256409
0.087004632 0.64273089 0.26186246 4288256409
0.22887386 0.76654178 0.31354454 4288256409
0.084940232 0.64002317 0.26125446 4288256409
0.22632119 0.76178014 0.30983075 4288256409
0.25149712 0.78717405 0.31762525 4288256409
0.26420513 0.80662102 0.3337492 4293138972
0.12059402 0.67033672 0.26287743 4288256409
0.21027626 0.74608946 0.30809703 4288256409
0.087300599 0.62843347 0.27477691 4288256409
0.25551894 0.79066944 0.32498229 4288256409
0.11852464 0.67012382 0.26387024 4288256409
0.26843804 0.81742489 0.36486071 4293138972
0.21596636 0.75275344 0.30858541 4288256409
0.25383487 0.78841436 0.31891888 4288256409
0.2664687 0.80542159 0.33468851 4293138972
0.1253977 0.68086386 0.27824831 4288256409
0.12773539 0.68105268 0.2766189 4288256409
0.26811182 0.8033585 0.33488658 4293138972
0.11968659 0.6742292 0.28039911 4288256409
0.13815123 0.68653375 0.27021629 4288256409
0.23253603 0.7704829 0.3144564 4288256409
0.23570304 0.7719968 0.31516209 4288256409
0.23450451 0.7690534 0.31305507 4288256409
0.26540151 0.80215567 0.33388487 4293138972
0.12965231 0.67983687 0.26993817 4288256409
0.21522118 0.7513209 0.30646586 4288256409
0.11560827 0.67039216 0.27699593 4288256409
0.15011594 0.69520015 0.29155204 4288256409
0.081822231 0.63943052 0.26747486 4288256409
0.10466395 0.63358045 0.26147643 4288256409
0.079839878 0.61657089 0.26682651 4288256409
0.091852747 0.62198961 0.26199752 4288256409
0.15038146 0.69610196 0.29096758 4288256409
0.086540617 0.62210834 0.26941845 4288256409
0.08595901 0.62501031 0.27134159 4288256409
0.1114045 0.65221238 0.27852902 4288256409
0.089721702 0.62444711 0.26975146 4288256409
0.091817632 0.62862802 0.27150583 4288256409
0.12456745 0.65833884 0.27434751 4288256409
0.10645244 0.63613272 0.26349896 4288256409
0.082439311 0.62646616 0.27348787 4288256409
0.10848336 0.64846981 0.2770381 4288256409
0.099051401 0.63792974 0.2730312 4288256409
0.11042134 0.64544535 0.27212042 4288256409
0.13339801 0.68859541 0.28132805 4288256409
0.11482481 0.65190959 0.27663997 4288256409
0.1052782 0.64383882 0.27510014 4288256409
0.096878216 0.62943906 0.26601666 4288256409
0.11982796 0.65347564 0.27453208 4288256409
0.092722632 0.63385558 0.27212495 4288256409
0.096086048 0.63335901 0.27260813 4288256409
0.17283835 0.70676422 0.29870427 4288256409
0.26917642 0.81214577 0.36187741 4293138972
0.14126547 0.66795146 0.26947254 4288256409
0.17428967 0.71160555 0.29417256 4288256409
0.076549873 0.61526489 0.26560497 4288256409
0.14081761 0.68392366 0.28746307 4288256409
0.12611024 0.66451544 0.28296095 4288256409
0.2142424 0.74821365 0.31042075 4288256409
0.093052119 0.64852095 0.26992694 4288256409
0.13312671 0.67151058 0.28516307 4288256409
0.18060936 0.7170288 0.29577693 4288256409
0.17121974 0.70701867 0.29672384 4288256409
0.14006193 0.69007057 0.29297492 4288256409
0.12087926 0.66039205 0.28103256 4288256409
0.16177541 0.69638878 0.293358 4288256409
0.25040317 0.78752726 0.3151966 4288256409
0.17864633 0.71507829 0.29529729 4288256409
0.080461629 0.62843603 0.27304745 4288256409
0.14826506 0.68362355 0.2891438 4288256409
0.16324329 0.69836742 0.29363114 4288256409
0.091368712 0.6465497 0.26848367 4288256409
0.27170932 0.80766737 0.36383519 4293138972
0.11210354 0.67035043 0.2748825 4288256409
0.15521596 0.69977164 0.2910029 4288256409
0.16819429 0.70606011 0.29420072 4288256409
0.15016694 0.69319862 0.28918564 4288256409
0.14475779 0.68966901 0.28774092 4288256409
0.16037808 0.69719583 0.29265723 4288256409
0.095937423 0.64226925 0.27357924 4288256409
0.20764913 0.74723822 0.30585149 4288256409
0.16981438 0.70615679 0.29483521 4288256409
0.16294856 0.69939214 0.29377374 4288256409
0.14962889 0.68774396 0.28934291 4288256409
0.11876382 0.67617053 0.28218767 4288256409
0.16384198 0.70150614 0.29189873 4288256409
0.1603072 0.70033187 0.29139271 4288256409
0.10799111 0.65375638 0.27713159 4288256409
0.11553089 0.65901881 0.28032967 4288256409
0.26064077 0.81313825 0.3287144 4293138972
0.07655289 0.63712913 0.26691037 4288256409
0.16659194 0.71105808 0.29244033 4288256409
0.11114523 0.65623182 0.27843574 4288256409
0.13964458 0.68288404 0.28776038 4288256409
0.27235818 0.81554574 0.3652997 4293138972
0.27234691 0.80946046 0.35709766 4293138972
0.11505029 0.6604082 0.27952754 4288256409
0.13821259 0.68521428 0.28643981 4288256409
0.25813287 0.8121407 0.32187909 4293138972
0.26159737 0.82048339 0.33060494 4293138972
0.07712692 0.63089263 0.27808923 4288256409
0.25371563 0.79417962 0.31662005 4288256409
0.13562006 0.67830545 0.28540868 4288256409
0.23288278 0.77218807 0.30765218 4288256409
0.092773639 0.63817894 0.27349097 4288256409
0.25400186 0.79737163 0.31520209 4288256409
0.13645814 0.68318796 0.28661644 4288256409
0.10504413 0.66060793 0.2718052 4288256409
0.10112544 0.65602225 0.27664074 4288256409
0.19354934 0.7451793 0.29445755 4288256409
0.13871913 0.69692999 0.28716728 4288256409
0.14123987 0.69881976 0.2892527 4288256409
0.097520627 0.64981401 0.26247522 4288256409
0.12971428 0.68191016 0.28059021 4288256409
0.26196942 0.82603574 0.33597609 4293138972
0.1830292 0.73524958 0.2913053 4288256409
0.18958423 0.7425133 0.29475206 4288256409
0.16221121 0.71654207 0.29258788 4288256409
0.15574457 0.69262975 0.29015642 4288256409
0.15016851 0.69142073 0.28950238 4288256409
0.16022009 0.70232612 0.28989097 4288256409
0.15058193 0.70798707 0.28234434 4288256409
0.15681748 0.70079613 0.29112616 4288256409
0.14127466 0.68875855 0.28736687 4288256409
0.14025791 0.69896591 0.28748962 4288256409
0.14985485 0.67875993 0.26666826 4288256409
0.16863933 0.72189611 0.28968307 4288256409
0.15618525 0.69855559 0.28971386 4288256409
0.27257934 0.80857617 0.3542968 4293138972
0.092873141 0.64531243 0.26531866 4288256409
0.15310277 0.69847196 0.28964558 4288256409
0.15754513 0.7126075 0.29213697 4288256409
0.13002223 0.68761986 0.27925283 4288256409
0.21287616 0.75043231 0.30130512 4288256409
0.089122854 0.6376031 0.27289569 4288256409
0.099009454 0.65356815 0.27484769 4288256409
0.16849221 0.72096652 0.29113033 4288256409
0.27564713 0.80760634 0.35601941 4293138972
0.17767575 0.71343303 0.29366219 4288256409
0.077467062 0.62672913 0.27671516 4288256409
0.26686648 0.79808921 0.33748558 4293138972
0.18296967 0.71614456 0.29915977 4288256409
0.14141776 0.67950493 0.28581077 4288256409
0.14383619 0.68114942 0.28672576 4288256409
0.12493773 0.66325253 0.28228298 4288256409
0.20233266 0.74909896 0.27783915 4288256409
0.12909625 0.67238033 0.28328961 4288256409
0.077576697 0.62601787 0.27086696 4288256409
0.19538595 0.7288506 0.29779482 4288256409
0.1681671 0.70209467 0.29670143 4288256409
0.15346983 0.6886335 0.28970486 4288256409
0.19805917 0.72977293 0.30162618 4288256409
0.13030094 0.66817451 0.28322661 4288256409
0.27094215 0.817186 0.36241385 4293138972
0.2710408 0.82026416 0.28344744 4293138972
0.24476945 0.78364146 0.31044725 4288256409
0.26574448 0.79988039 0.34424165 4293138972
0.26786351 0.80353379 0.3495208 4293138972
0.27441645 0.8107174 0.26807719 4293138972
0.13768791 0.68198574 0.28489986 4288256409
0.17613901 0.71063519 0.29403859 4288256409
0.1895254 0.74108297 0.28615662 4288256409
0.27249515 0.81506687 0.36053467 4293138972
0.22210471 0.76063997 0.3084498 4288256409
0.22554554 0.77217466 0.28728029 4288256409
0.084850833 0.63492233 0.27077562 4288256409
0.27372789 0.80506885 0.35367405 4293138972
0.26225877 0.80819058 0.33889252 4293138972
0.23696339 0.77522016 0.31159711 4288256409
0.082476154 0.62655455 0.27072206 4288256409
0.083854593 0.62759078 0.27142897 4288256409
0.14319688 0.70075446 0.28936553 4288256409
0.26367107 0.82769614 0.32530019 4293138972
0.084680542 0.61437327 0.2601476 4288256409
0.089476272 0.63075131 0.27236998 4288256409
0.085082047 0.6323126 0.27125394 4288256409
0.080326773 0.62839448 0.27072224 4288256409
0.07742662 0.63360322 0.26380795 4288256409
0.27144575 0.80568379 0.35283002 4293138972
0.26233023 0.80349934 0.32113075 4293138972
0.2638787 0.80477899 0.32328555 4293138972
0.25645921 0.79598135 0.31504017 4288256409
0.27591902 0.81246865 0.35643333 4293138972
0.082983151 0.6298185 0.2708185 4288256409
0.24441129 0.78263921 0.30788171 4288256409
0.12151612 0.67918813 0.28202316 4288256409
0.12173474 0.67862481 0.2797747 4288256409
0.13327481 0.67934805 0.28462017 4288256409
0.14492476 0.68821001 0.28598514 4288256409
0.1664951 0.70655948 0.28977317 4288256409
0.090919636 0.63674796 0.27236027 4288256409
0.089947961 0.64993858 0.2606445 4288256409
0.2403625 0.77684063 0.30844644 4288256409
0.21890771 0.75632441 0.30211163 4288256409
0.074848004 0.62431651 0.26995361 4288256409
0.24661745 0.78287768 0.31141222 4288256409
0.18239018 0.72206634 0.29336199 4288256409
0.20729747 0.74514663 0.29754418 4288256409
0.260901 0.79882634 0.31472966 4293138972
0.13208714 0.67913485 0.28239623 4288256409
0.22729747 0.76468962 0.30375716 4288256409
0.22900632 0.76794463 0.30508655 4288256409
0.2229881 0.76344997 0.30528289 4288256409
0.11047176 0.66813064 0.27639732 4288256409
0.18327866 0.72410172 0.29391259 4288256409
0.26506507 0.80394405 0.32468292 4293138972
0.22725654 0.76636958 0.30403587 4288256409
0.16181777 0.71507657 0.28820363 4288256409
0.21945761 0.76111734 0.30362234 4288256409
0.13788156 0.69708771 0.28404289 4288256409
0.070852786 0.62323296 0.27069506 4288256409
0.069271371 0.62278968 0.26832515 4288256409
0.19788146 0.75190181 0.2968716 4288256409
0.19591276 0.74934477 0.29502353 4288256409
0.077756628 0.62723964 0.27049375 4288256409
0.1367985 0.6945681 0.28381541 4288256409
0.11069104 0.66086525 0.26972291 4288256409
0.26327837 0.80755532 0.31953338 4293138972
0.17897022 0.73134226 0.2924315 4288256409
0.1110387 0.66018236 0.26448283 4288256409
0.18172289 0.73491555 0.2917991 4288256409
0.096293606 0.65147412 0.2760064 4288256409
0.085109234 0.6296162 0.27093536 4288256409
0.26269081 0.80748308 0.32598668 4293138972
0.26136988 0.80817837 0.31350592 4293138972
0.18890859 0.72929054 0.29268801 4288256409
0.17492872 0.7260828 0.29394299 4288256409
0.15133698 0.70853478 0.28662705 4288256409
0.16861629 0.70963359 0.28988257 4288256409
0.11690278 0.66592914 0.27069086 4288256409
0.26378965 0.80439842 0.31516784 4293138972
0.26319247 0.80765277 0.31690556 4293138972
0.13937236 0.68720013 0.28531182 4288256409
0.07986325 0.6267938 0.27001941 4288256409
