# .PCD v0.7 - Point Cloud Data file format
VERSION 0.7
FIELDS x y z rgba
SIZE 4 4 4 4
TYPE F F F U
COUNT 1 1 1 1
WIDTH 1094
HEIGHT 1
VIEWPOINT 0 0 0 1 0 0 0
POINTS 1094
DATA ascii
0.22075315 0.74749905 0.4217509 4281827000
0.24865729 0.76222146 0.43126154 4281827000
0.24065244 0.75775182 0.42758512 4281827000
0.22814229 0.74614596 0.41749346 4281827000
0.3280015 0.79146367 0.45364606 4293138972
0.24519096 0.75126767 0.4059605 4281827000
0.24222723 0.74394429 0.40103975 4281827000
0.23342772 0.73182309 0.39323545 4281827000
0.22746734 0.7232582 0.38824749 4281827000
0.25436166 0.78508031 0.39984715 4281827000
0.25238273 0.7746526 0.3787291 4281827000
0.24341843 0.74775499 0.34051424 4294967091
0.24425207 0.74679834 0.30383873 4294967091
0.24204233 0.74378753 0.28384596 4294967091
0.29858786 0.78334898 0.49767089 4293138972
0.29737836 0.78205627 0.49651694 4293138972
0.29640698 0.78088528 0.49451014 4293138972
0.26816183 0.77755821 0.47454011 4293138972
0.15314792 0.66294193 0.41720879 4281827000
0.15828854 0.6733256 0.41701126 4281827000
0.14978746 0.64740521 0.41046444 4281827000
0.14761937 0.64490092 0.40970644 4281827000
0.26445633 0.77412951 0.46577504 4293138972
0.14564113 0.63917524 0.40535122 4281827000
0.14302386 0.63693482 0.40430129 4281827000
0.14013834 0.635158 0.40300456 4281827000
0.13687873 0.63338441 0.40109608 4281827000
0.13340998 0.63060343 0.39885688 4281827000
0.13014607 0.62798172 0.3976793 4281827000
0.1562086 0.63882685 0.40040782 4281827000
0.24758099 0.765001 0.44642699 4281827000
0.24241202 0.76334852 0.44381675 4281827000
0.11239772 0.6120435 0.37576592 4281827000
0.18099545 0.70506972 0.41087028 4281827000
0.12649979 0.62147367 0.38097394 4281827000
0.10641536 0.60740221 0.36585638 4281827000
0.27588379 0.77706307 0.44897953 4293138972
0.17923729 0.65851098 0.39851835 4281827000
0.31589571 0.80040985 0.46653554 4293138972
0.21428019 0.73861867 0.41751927 4281827000
0.32259998 0.79298252 0.46133438 4293138972
0.19154221 0.68866217 0.39987105 4281827000
0.21473448 0.72220039 0.40377566 4281827000
0.21317399 0.71929467 0.4028182 4281827000
0.25098568 0.75945842 0.415407 4281827000
0.24595204 0.75465572 0.41320959 4281827000
0.22734483 0.73376435 0.40465167 4281827000
0.22472508 0.72934896 0.40237796 4281827000
0.18863291 0.67039114 0.38105366 4281827000
0.33333215 0.79866165 0.4523879 4293138972
0.21372229 0.70676023 0.38861349 4281827000
0.33758232 0.79248047 0.4461616 4293138972
0.24291028 0.74707174 0.4034721 4281827000
0.16353269 0.62814438 0.35310185 4294967091
0.1568906 0.62921345 0.32760131 4294967091
0.15485126 0.62506604 0.31544179 4294967091
0.15366015 0.62223756 0.31332156 4294967091
0.29643422 0.78242457 0.49042562 4293138972
0.29758912 0.78401202 0.48568833 4293138972
0.17106989 0.67192394 0.41133198 4281827000
0.16957963 0.66829765 0.41113305 4281827000
0.16903618 0.66112798 0.40911829 4281827000
0.18440035 0.68136823 0.40241125 4281827000
0.18440628 0.6739248 0.40087977 4281827000
0.15693256 0.62182564 0.37401682 4294967091
0.23604171 0.74970299 0.41738221 4281827000
0.10396709 0.61053663 0.3490997 4281827000
0.22308509 0.72468996 0.39706901 4281827000
0.15522397 0.62707555 0.32261676 4294967091
0.2452268 0.74349421 0.35734567 4294967091
0.15119819 0.61955494 0.29940656 4294967091
0.24734037 0.74758047 0.35250595 4294967091
0.24149612 0.74536341 0.34000021 4294967091
0.24351323 0.74556124 0.28624204 4294967091
0.29974261 0.78684759 0.48357299 4293138972
0.29783958 0.78482836 0.48015216 4293138972
0.16651978 0.67624718 0.41396058 4281827000
0.2352654 0.7546944 0.42495173 4281827000
0.32641259 0.79204458 0.45649567 4293138972
0.32621297 0.78628737 0.44078228 4293138972
0.16165884 0.62512267 0.35578701 4294967091
0.1573147 0.62924892 0.3301889 4294967091
0.076430202 0.59482229 0.28922108 4281827000
0.14838135 0.61462367 0.27445331 4294967091
0.14841586 0.61199373 0.27258369 4294967091
0.14973308 0.61685699 0.26227677 4294967091
0.2972694 0.78353298 0.48793408 4293138972
0.24825987 0.7668342 0.45077366 4281827000
0.24896795 0.7656405 0.44870591 4281827000
0.12671539 0.62366211 0.38978562 4281827000
0.12442055 0.62150371 0.38891011 4281827000
0.12311178 0.61935312 0.38720655 4281827000
0.31189504 0.78453541 0.47172943 4293138972
0.23835862 0.76159602 0.44109267 4281827000
0.23446377 0.75904763 0.43817437 4281827000
0.31384599 0.78226262 0.46791768 4293138972
0.21738289 0.74602991 0.42505008 4281827000
0.31244299 0.78135264 0.46421397 4293138972
0.22362022 0.75222325 0.42550141 4281827000
0.14661022 0.62050629 0.38223502 4281827000
0.13896438 0.61880291 0.37803432 4281827000
0.32196873 0.78571272 0.45216164 4293138972
0.19511224 0.68555397 0.39292184 4281827000
0.17965515 0.65208149 0.38303611 4281827000
0.2466113 0.75638354 0.41561484 4281827000
0.15951045 0.62308222 0.37059519 4294967091
0.16462243 0.62756121 0.36910382 4294967091
0.22968918 0.72945541 0.39556813 4281827000
0.091784447 0.59850949 0.32646227 4281827000
0.16446657 0.63227761 0.34343907 4294967091
0.16124004 0.6302312 0.33796361 4294967091
0.081297539 0.59647679 0.29889935 4281827000
0.14874449 0.61686498 0.29127598 4294967091
0.14737162 0.61390126 0.28589985 4294967091
0.24385987 0.74803472 0.33294258 4294967091
0.30207759 0.78484291 0.4765065 4293138972
0.32334644 0.79388529 0.46039799 4293138972
0.32666463 0.78719157 0.44281366 4293138972
0.16203092 0.62693077 0.34939224 4294967091
0.16193835 0.62396026 0.3475284 4294967091
0.16201742 0.62754869 0.34583089 4294967091
0.29958895 0.78495038 0.478672 4293138972
0.15445375 0.65374553 0.41139576 4281827000
0.12821448 0.62605953 0.39387852 4281827000
0.30814683 0.78045315 0.47099265 4293138972
0.31189841 0.78077626 0.4667761 4293138972
0.23283283 0.75745016 0.43516314 4281827000
0.2157622 0.74606055 0.42697823 4281827000
0.26290125 0.76916879 0.44097391 4281827000
0.28016561 0.78110617 0.44867963 4293138972
0.21822822 0.74276716 0.41932234 4281827000
0.27393243 0.78148264 0.43863752 4281827000
0.25915983 0.76705337 0.43166605 4281827000
0.17640525 0.64760846 0.3885164 4281827000
0.16491498 0.63247633 0.38235685 4281827000
0.099320076 0.60301399 0.35169452 4281827000
0.23489299 0.74640888 0.41361111 4281827000
0.096929781 0.60080069 0.34585643 4281827000
0.22126354 0.72641325 0.40256968 4281827000
0.20859392 0.70693696 0.39536873 4281827000
0.17907117 0.65018016 0.37970212 4281827000
0.097816288 0.60200018 0.343099 4281827000
0.096611515 0.60182053 0.33832651 4281827000
0.15807478 0.62000602 0.36294368 4294967091
0.090956129 0.59849155 0.3220422 4281827000
0.34434566 0.79324585 0.4397749 4293138972
0.25528449 0.77955896 0.39820147 4281827000
0.079064988 0.5941788 0.29787487 4281827000
0.15312488 0.62466282 0.31764209 4294967091
0.28151 0.8046602 0.49286264 4293138972
0.30401644 0.77974844 0.47105494 4293138972
0.24115857 0.75987399 0.43157306 4281827000
0.21582991 0.73744363 0.41543639 4281827000
0.23033483 0.74045622 0.41002694 4281827000
0.1594886 0.62263381 0.35879937 4294967091
0.26423874 0.77256936 0.46160594 4293138972
0.25684327 0.77047974 0.45955807 4281827000
0.13637009 0.63479471 0.40351698 4281827000
0.30832714 0.78893483 0.47467336 4293138972
0.23814355 0.75816327 0.43099967 4281827000
0.21361609 0.74077737 0.42265487 4281827000
0.21258242 0.73889232 0.42120644 4281827000
0.18626927 0.70873612 0.40968338 4281827000
0.17970771 0.66271985 0.40182802 4281827000
0.3174946 0.78882897 0.46481997 4293138972
0.11082133 0.61085433 0.36912596 4281827000
0.32333955 0.78981131 0.45802811 4293138972
0.19097401 0.69095117 0.40117982 4281827000
0.17318289 0.64453936 0.3890245 4281827000
0.23739347 0.75257266 0.420569 4281827000
0.23327214 0.74932158 0.41801572 4281827000
0.19569482 0.69793367 0.40100664 4281827000
0.19379495 0.68285972 0.39300957 4281827000
0.1016816 0.60576683 0.35343471 4281827000
0.15909937 0.62825263 0.33736169 4294967091
0.080593556 0.59500724 0.30176982 4281827000
0.15254813 0.62090445 0.30114296 4294967091
0.14818114 0.61732 0.29414442 4294967091
0.23962837 0.74246556 0.3388719 4294967091
0.24120604 0.74402952 0.33448437 4294967091
0.1496987 0.62095863 0.28446373 4294967091
0.24193384 0.74514019 0.32989085 4294967091
0.14831901 0.61658978 0.2809692 4294967091
0.2438502 0.74538511 0.30714625 4294967091
0.25565118 0.76591748 0.44175693 4281827000
0.24026081 0.7607109 0.43548071 4281827000
0.22190931 0.75104332 0.42680877 4281827000
0.2607106 0.76804143 0.43863431 4281827000
0.21581438 0.74078554 0.41826513 4281827000
0.27319413 0.78712338 0.434095 4281827000
0.31791791 0.78296292 0.43995741 4293138972
0.095064506 0.60091412 0.33474523 4281827000
0.16251448 0.62992954 0.34270415 4294967091
0.16093881 0.62910992 0.34033135 4294967091
0.14665063 0.61320323 0.27996036 4294967091
0.29839787 0.77695984 0.46535656 4293138972
0.27112678 0.77334309 0.45407137 4293138972
0.26977554 0.77620852 0.43701154 4281827000
0.26741353 0.77472055 0.43328273 4281827000
0.23386274 0.74762797 0.41665721 4281827000
0.32630068 0.78879195 0.452847 4293138972
0.26273134 0.7708388 0.42811728 4281827000
0.32298195 0.78599274 0.44429952 4293138972
0.24379997 0.74438173 0.27489394 4294967091
0.24397352 0.74359339 0.26911026 4294967091
0.26718757 0.79845917 0.48329371 4293138972
0.26697952 0.7749632 0.46712875 4293138972
0.28148866 0.77644032 0.46155071 4293138972
0.21265827 0.74208176 0.42445633 4281827000
0.11700858 0.6152814 0.38178247 4281827000
0.24514826 0.76210511 0.43439168 4281827000
0.1805656 0.66596371 0.40297216 4281827000
0.22741078 0.74942058 0.41975757 4281827000
0.15433064 0.62349159 0.3846896 4281827000
0.22713906 0.74267727 0.41517359 4281827000
0.18639241 0.66975343 0.39535344 4281827000
0.10672235 0.60893732 0.36107063 4281827000
0.17484802 0.64312887 0.3764458 4281827000
0.092981085 0.59911114 0.32939234 4281827000
0.075961627 0.59324151 0.2938669 4281827000
0.15391669 0.62149155 0.31040907 4294967091
0.15190727 0.61924893 0.30298734 4294967091
0.14922543 0.6181739 0.29761443 4294967091
0.15000042 0.622796 0.28576097 4294967091
0.27433732 0.77899486 0.47753024 4293138972
0.26970366 0.77453208 0.46507099 4293138972
0.28744555 0.77759176 0.46970579 4293138972
0.27883658 0.77598709 0.46725726 4293138972
0.23539218 0.75860703 0.43600988 4281827000
0.2666668 0.77095926 0.44323677 4281827000
0.1144639 0.6132049 0.37689036 4281827000
0.095876865 0.60032517 0.3416853 4281827000
0.074023023 0.59298748 0.28898111 4281827000
0.1533166 0.62025833 0.30538309 4294967091
0.14696686 0.61306065 0.27667588 4294967091
0.1490674 0.61346883 0.26893324 4294967091
0.14883703 0.61124861 0.26373184 4294967091
0.29940957 0.79239923 0.48229301 4293138972
0.243083 0.76410925 0.44568515 4281827000
0.24554978 0.76425016 0.44447178 4281827000
0.31447092 0.78749681 0.46839064 4293138972
0.23851867 0.76078641 0.43731067 4281827000
0.16494893 0.65491444 0.40762526 4281827000
0.26805708 0.77168971 0.44584909 4281827000
0.16381289 0.64692158 0.40255126 4281827000
0.18003474 0.67324555 0.40627831 4281827000
0.17802873 0.66692495 0.40563232 4281827000
0.17716925 0.66190124 0.40379879 4281827000
0.17094371 0.65118814 0.4017348 4281827000
0.11522873 0.61445892 0.37885776 4281827000
0.18433696 0.68406802 0.40405503 4281827000
0.18230885 0.67597067 0.40438414 4281827000
0.19024034 0.69574767 0.40396485 4281827000
0.18575531 0.68579406 0.40305847 4281827000
0.18484405 0.67651218 0.40144271 4281827000
0.10903341 0.60952204 0.37023363 4281827000
0.25478131 0.76459092 0.42814001 4281827000
0.18966597 0.68691337 0.40061295 4281827000
0.18452492 0.66982573 0.39824814 4281827000
0.24952602 0.76112336 0.42356229 4281827000
0.19335891 0.69188935 0.39869943 4281827000
0.24895476 0.76006353 0.42149168 4281827000
0.10238782 0.60535216 0.35660261 4281827000
0.20865418 0.71035105 0.3989605 4281827000
0.20671763 0.7076093 0.39789477 4281827000
0.18563394 0.66348857 0.38838044 4281827000
0.18319374 0.65833205 0.38738418 4281827000
0.24429488 0.75309438 0.41315153 4281827000
0.19752479 0.68965733 0.3920044 4281827000
0.15138139 0.62229741 0.31765565 4294967091
0.1525273 0.62311035 0.31529063 4294967091
0.15308599 0.61902076 0.30996844 4294967091
0.152743 0.61906803 0.30716836 4294967091
0.15047137 0.61739618 0.30384445 4294967091
0.14746223 0.61407655 0.29028159 4294967091
0.15011562 0.61387098 0.26348114 4294967091
0.240748 0.74342364 0.28953987 4294967091
0.30026558 0.7781837 0.46921405 4293138972
0.11210369 0.61190432 0.37137136 4281827000
0.15708284 0.62309152 0.37658283 4281827000
0.087863088 0.59712565 0.31801608 4281827000
0.29623008 0.78171641 0.49267715 4293138972
0.28819019 0.8029508 0.48887965 4293138972
0.29650018 0.78218329 0.47887573 4293138972
0.17497455 0.66054004 0.40452692 4281827000
0.16885799 0.64850724 0.4005959 4281827000
0.18140838 0.66878074 0.40310177 4281827000
0.1816425 0.65812266 0.39358687 4281827000
0.1802337 0.65514541 0.39316583 4281827000
0.10412759 0.60636967 0.36108437 4281827000
0.10156206 0.60439265 0.35828462 4281827000
0.21835752 0.72572553 0.40398449 4281827000
0.20033799 0.69455582 0.39445621 4281827000
0.19619986 0.68982041 0.39422682 4281827000
0.18874234 0.67079604 0.3878465 4281827000
0.18589589 0.66290206 0.38568342 4281827000
0.21388189 0.70836765 0.39053687 4281827000
0.093441196 0.59874541 0.33303511 4281827000
0.090047903 0.59669155 0.32368046 4281827000
0.22003344 0.70648026 0.37003118 4281827000
0.15223345 0.61974323 0.3122575 4294967091
0.29174271 0.77981198 0.47888061 4293138972
0.31119457 0.79045177 0.47233397 4293138972
0.16383864 0.6486932 0.40414795 4281827000
0.23558144 0.75604075 0.42651767 4281827000
0.11118294 0.61084223 0.37285757 4281827000
0.18800129 0.68900543 0.40176222 4281827000
0.19445187 0.69503921 0.40063155 4281827000
0.1931093 0.68812978 0.39731863 4281827000
0.1931017 0.68604058 0.3949829 4281827000
0.19071203 0.67487872 0.39000931 4281827000
0.21813875 0.71557009 0.39350751 4281827000
0.3455458 0.79561508 0.440413 4293138972
0.22227094 0.71332389 0.38301191 4281827000
0.21541522 0.70129204 0.37539828 4281827000
0.15799411 0.62692541 0.30511838 4294967091
0.30581009 0.78327 0.47387519 4293138972
0.26078945 0.77073354 0.45578042 4281827000
0.31406659 0.78344035 0.46896887 4293138972
0.30243403 0.77660739 0.46171078 4293138972
0.17344801 0.65724558 0.40393943 4281827000
0.31086668 0.77962101 0.44332108 4293138972
0.30916345 0.77849585 0.44435742 4293138972
0.14703499 0.61111063 0.2752074 4294967091
0.14900053 0.6111089 0.26893705 4294967091
0.29440892 0.77915013 0.4745183 4293138972
0.251481 0.76336473 0.43470883 4281827000
0.32935277 0.79249948 0.45298344 4293138972
0.25434002 0.76421362 0.42334971 4281827000
0.15771978 0.62121081 0.36796376 4294967091
0.15838987 0.62105334 0.36523882 4294967091
0.082754008 0.59532231 0.30845624 4281827000
0.24291398 0.74514985 0.31388167 4294967091
0.24201415 0.74191362 0.28761569 4294967091
0.30225185 0.79763806 0.47835281 4293138972
0.15351345 0.61737955 0.37236589 4294967091
0.16144453 0.62749934 0.34292319 4294967091
0.29763594 0.78315938 0.49527431 4293138972
0.30659345 0.78830403 0.4752782 4293138972
0.27730614 0.7842688 0.45967263 4293138972
0.31775376 0.78471357 0.45816877 4293138972
0.18079777 0.66218209 0.39922234 4281827000
0.25153798 0.76234841 0.42232171 4281827000
0.24458274 0.75552917 0.41688636 4281827000
0.19787444 0.69716632 0.39883423 4281827000
0.18866278 0.67873323 0.39603427 4281827000
0.18875392 0.67277873 0.39246953 4281827000
0.18796819 0.67050517 0.39076605 4281827000
0.24298629 0.75032812 0.40978488 4281827000
0.19136991 0.67502475 0.38651606 4281827000
0.15732259 0.62158734 0.37101212 4294967091
0.0980433 0.60205215 0.34797415 4281827000
0.16148879 0.62437695 0.34382623 4294967091
0.15928963 0.62638438 0.33977833 4294967091
0.14933389 0.61759138 0.26354018 4294967091
0.29461411 0.77945471 0.4935663 4293138972
0.26522034 0.7734611 0.4632574 4293138972
0.30812541 0.77774054 0.44795716 4293138972
0.15834743 0.62162626 0.36110187 4294967091
0.16084625 0.62339646 0.3497107 4294967091
0.30995953 0.78023416 0.46752799 4293138972
0.33805627 0.78916878 0.43910655 4293138972
0.14921002 0.61352575 0.26580966 4294967091
0.3074632 0.79118884 0.47535321 4293138972
0.26193693 0.7715621 0.45788842 4281827000
0.25661507 0.76537108 0.43052918 4281827000
0.24429375 0.75599217 0.41952828 4281827000
0.17774221 0.65331501 0.39586753 4281827000
0.25851652 0.76933199 0.45152938 4281827000
0.29707503 0.7750479 0.46180183 4293138972
0.30518481 0.77607495 0.45238733 4293138972
0.30593374 0.77646667 0.44993395 4293138972
0.1977786 0.70486391 0.40242288 4281827000
0.26244858 0.7741583 0.46718594 4293138972
0.31352022 0.80012476 0.46964717 4293138972
0.31299484 0.78530711 0.47029099 4293138972
0.29021227 0.77614284 0.46241736 4293138972
0.30872968 0.77960485 0.46470091 4293138972
0.24444363 0.75451177 0.41484311 4281827000
0.15454896 0.62107086 0.37804052 4281827000
0.097799413 0.6015045 0.35340354 4281827000
0.29408014 0.78191471 0.48325911 4293138972
0.27945253 0.77773297 0.47191724 4293138972
0.24074082 0.74392962 0.29190469 4294967091
0.29001427 0.80367017 0.49378294 4293138972
0.29570922 0.77656138 0.46583086 4293138972
0.13509589 0.61756176 0.36807027 4281827000
0.29654306 0.78331453 0.48282015 4293138972
0.29940176 0.78356194 0.47748271 4293138972
0.26687771 0.77098757 0.45096332 4281827000
0.28353804 0.80384046 0.49412158 4293138972
0.28284568 0.80280274 0.49312627 4293138972
0.30883983 0.7836358 0.47282785 4293138972
0.31386548 0.78224659 0.46267709 4293138972
0.3033779 0.77481717 0.45350584 4293138972
0.26412776 0.77115017 0.43286368 4281827000
0.30695432 0.77692771 0.44384447 4293138972
0.10264736 0.60522485 0.36310226 4281827000
0.32893494 0.7863341 0.43891177 4293138972
0.3414402 0.78805524 0.43443683 4293138972
0.28771332 0.80025262 0.4911851 4293138972
0.2985712 0.77520865 0.45962828 4293138972
0.30775145 0.77768832 0.44534042 4293138972
0.073411755 0.5910542 0.28657651 4281827000
0.28432703 0.80486912 0.4902617 4293138972
0.34320521 0.78914058 0.4335219 4293138972
0.30622208 0.77701533 0.44660452 4293138972
0.28410113 0.80524462 0.48573861 4293138972
0.16025767 0.62330812 0.35300648 4294967091
0.24942845 0.76798141 0.45252424 4281827000
0.34397438 0.79836458 0.43905383 4293138972
0.149084 0.61255217 0.26069152 4294967091
0.10684706 0.60757875 0.36874866 4281827000
0.14509089 0.64147502 0.40662253 4281827000
0.29964429 0.77512228 0.45625946 4293138972
0.14620881 0.61499101 0.29317942 4294967091
0.22937664 0.75555342 0.42886406 4281827000
0.19677402 0.72348994 0.41091755 4281827000
0.31234184 0.7808727 0.44777226 4293138972
0.24528839 0.75891578 0.42406061 4281827000
0.24084254 0.75430918 0.41921034 4281827000
0.31611592 0.7827934 0.44292796 4293138972
0.26076514 0.7706334 0.42237106 4281827000
0.10152171 0.60443616 0.36005813 4281827000
0.27161703 0.77753764 0.47360921 4293138972
0.3020421 0.79366964 0.47850159 4293138972
0.25327867 0.76929843 0.45393851 4281827000
0.31355873 0.80679059 0.46882397 4293138972
0.32369229 0.79470307 0.45857573 4293138972
0.27622631 0.78178883 0.44226751 4281827000
0.24543041 0.76177913 0.43063799 4281827000
0.30968693 0.77920228 0.4516204 4293138972
0.26295877 0.77011377 0.43543139 4281827000
0.32878765 0.79710108 0.45509815 4293138972
0.2388121 0.7503202 0.41422039 4281827000
0.32820067 0.78802288 0.44378915 4293138972
0.26088822 0.78050965 0.41556785 4281827000
0.24989051 0.75922394 0.41198349 4281827000
0.24522537 0.7543329 0.41063347 4281827000
0.29480311 0.79890102 0.48472232 4293138972
0.2433155 0.75839514 0.42445776 4281827000
0.28939736 0.77958918 0.48049417 4293138972
0.30052701 0.78873277 0.47985476 4293138972
0.27311856 0.77704263 0.46963742 4293138972
0.26895559 0.77581418 0.46661687 4293138972
0.31200004 0.78713655 0.46962008 4293138972
0.23950773 0.76265448 0.44333404 4281827000
0.3174904 0.7856999 0.460206 4293138972
0.13106158 0.63082415 0.39956278 4281827000
0.22943535 0.75382167 0.42402107 4281827000
0.12524356 0.62268889 0.39082137 4281827000
0.26302841 0.7780472 0.420504 4281827000
0.23582512 0.74022824 0.34718841 4294967091
0.23767146 0.741934 0.34388575 4294967091
0.28038302 0.77683872 0.46584576 4293138972
0.15352687 0.66590911 0.4165962 4281827000
0.30744049 0.77937734 0.46001896 4293138972
0.25846964 0.76808077 0.4428108 4281827000
0.23990299 0.76206028 0.4360508 4281827000
0.26059842 0.76865441 0.43104038 4281827000
0.1192699 0.61655581 0.38430005 4281827000
0.23879325 0.75401157 0.41978553 4281827000
0.11011482 0.60979348 0.37405366 4281827000
0.073133819 0.59132153 0.29348975 4281827000
0.2924729 0.77924359 0.48994187 4293138972
0.28966829 0.77865195 0.48410258 4293138972
0.26079947 0.77571481 0.47039092 4293138972
0.24510898 0.76627409 0.44931707 4281827000
0.28341502 0.77712166 0.46092731 4293138972
0.1457784 0.64917964 0.41262734 4281827000
0.14561808 0.64629513 0.41101471 4281827000
0.31574997 0.78579617 0.4634513 4293138972
0.17008755 0.69602126 0.41355869 4281827000
0.17008962 0.69247293 0.4124738 4281827000
0.19805881 0.72719336 0.41183761 4281827000
0.15403694 0.62055135 0.37393701 4294967091
0.15392305 0.62707651 0.32592764 4294967091
0.15221456 0.6252355 0.3215982 4294967091
0.24042545 0.7444917 0.31814516 4294967091
0.14528528 0.61233342 0.2826176 4294967091
0.30065313 0.79282397 0.47939536 4293138972
0.25934687 0.77246124 0.4633067 4281827000
0.30950499 0.80671799 0.47552529 4293138972
0.22716717 0.75694746 0.43224216 4281827000
0.16825701 0.69206846 0.41388035 4281827000
0.31745046 0.78702545 0.46135437 4293138972
0.12294288 0.6197046 0.38925242 4281827000
0.27090049 0.79185146 0.42489877 4281827000
0.24146813 0.74507546 0.32624722 4294967091
0.14520535 0.61096877 0.2779606 4294967091
0.14737917 0.6101777 0.27113861 4294967091
0.28798142 0.80071384 0.49396631 4293138972
0.29308182 0.7802344 0.48778483 4293138972
0.29322663 0.78150582 0.48481518 4293138972
0.2964997 0.79607421 0.48347211 4293138972
0.26278621 0.77548194 0.46926478 4293138972
0.30414635 0.78104818 0.47175279 4293138972
0.25179631 0.76863092 0.45441073 4281827000
0.16477606 0.68645906 0.41516003 4281827000
0.14209911 0.63830215 0.40549731 4281827000
0.23150198 0.755714 0.42616436 4281827000
0.11075295 0.61087006 0.37628505 4281827000
0.19303483 0.70144022 0.40335038 4281827000
0.33752641 0.7982375 0.44899011 4293138972
0.094179578 0.59928614 0.33669934 4281827000
0.15032756 0.6207422 0.31455743 4294967091
0.24046795 0.74364889 0.32553211 4294967091
0.2403985 0.74398243 0.32180277 4294967091
0.2422201 0.74300975 0.27232254 4294967091
0.26035538 0.77351516 0.46511084 4293138972
0.30789658 0.80576736 0.47640055 4293138972
0.30463773 0.78855944 0.47608492 4293138972
0.25263208 0.76966816 0.45622787 4281827000
0.25204766 0.76808637 0.44967729 4281827000
0.23601946 0.76036084 0.43625599 4281827000
0.12442305 0.62252301 0.3923907 4281827000
0.15584849 0.62720793 0.33405647 4294967091
0.15444016 0.62775141 0.32960811 4294967091
0.29566962 0.78256655 0.49390262 4293138972
0.29038274 0.78012371 0.48125172 4293138972
0.26963282 0.7767942 0.46952942 4293138972
0.25457308 0.76977575 0.45344666 4281827000
0.24388497 0.76604038 0.4465026 4281827000
0.14444655 0.64271551 0.40889326 4281827000
0.31330562 0.78234994 0.4642767 4293138972
0.22927533 0.75780153 0.43374282 4281827000
0.14323665 0.63997108 0.40650126 4281827000
0.13880709 0.63712764 0.40492901 4281827000
0.12898925 0.62974924 0.39860946 4281827000
0.12669085 0.6258229 0.39617425 4281827000
0.27504578 0.77904421 0.44395548 4281827000
0.25057682 0.76415402 0.43654513 4281827000
0.23916784 0.76036769 0.43259197 4281827000
0.22594939 0.75326782 0.42371228 4281827000
0.19353458 0.72407812 0.41184068 4281827000
0.32984939 0.79823291 0.45458591 4293138972
0.32339624 0.78821218 0.45325947 4293138972
0.2509596 0.76269919 0.42407283 4281827000
0.2433611 0.75689417 0.42109925 4281827000
0.24414632 0.74304765 0.26558468 4294967091
0.29652736 0.78510863 0.49246839 4293138972
0.29857042 0.79141033 0.48557732 4293138972
0.29778337 0.78535104 0.48697802 4293138972
0.29881051 0.78970146 0.48349938 4293138972
0.25850308 0.7728731 0.46501443 4281827000
0.255319 0.77169633 0.46117508 4281827000
0.27186319 0.77432317 0.45493045 4293138972
0.26174295 0.77044344 0.45185575 4281827000
0.14275382 0.64484775 0.41028264 4281827000
0.27007294 0.77308959 0.45169219 4281827000
0.27286786 0.77496475 0.44930911 4281827000
0.12622581 0.62413001 0.392818 4281827000
0.19537951 0.72579193 0.4113304 4281827000
0.30627549 0.77815497 0.44896695 4293138972
0.079769805 0.59348136 0.30415359 4281827000
0.14509994 0.61249512 0.28741565 4294967091
0.29817027 0.78713346 0.48847678 4293138972
0.3103129 0.79478008 0.47199056 4293138972
0.23515108 0.7591126 0.43172497 4281827000
0.12268494 0.62084889 0.39071101 4281827000
0.26121578 0.77067155 0.42445293 4281827000
0.15603548 0.61937326 0.36648113 4294967091
0.31175435 0.78190023 0.46774006 4293138972
0.27655157 0.77956271 0.44582772 4293138972
0.12567692 0.62428659 0.3942984 4281827000
0.22730309 0.75446218 0.42528075 4281827000
0.26396272 0.7714963 0.43462867 4281827000
0.12015926 0.61704713 0.38637301 4281827000
0.23791747 0.75431156 0.42129481 4281827000
0.23944192 0.7526229 0.41660362 4281827000
0.10781566 0.60848993 0.37163672 4281827000
0.25925007 0.79055798 0.41055423 4281827000
0.099942766 0.60347134 0.3549076 4281827000
0.098098099 0.60425365 0.34298596 4281827000
0.095347762 0.65899783 0.26129961 4294967091
0.29502657 0.78166628 0.48880887 4293138972
0.28979197 0.78011495 0.48375344 4293138972
0.29668322 0.77779371 0.46665663 4293138972
0.24954523 0.7682634 0.45034283 4281827000
0.31070444 0.7806136 0.45926714 4293138972
0.24125795 0.75626373 0.42225051 4281827000
0.28995728 0.80369323 0.49370411 4293138972
0.29505682 0.78060049 0.49551275 4293138972
0.28681025 0.79947072 0.49162245 4293138972
0.29550001 0.78359163 0.4927789 4293138972
0.29506534 0.80101866 0.4825215 4293138972
0.26539519 0.77688015 0.47064075 4293138972
0.25627357 0.77223998 0.46354258 4281827000
0.27927205 0.77795446 0.46959609 4293138972
0.26566198 0.77219969 0.45489648 4281827000
0.31882283 0.78823435 0.45880118 4293138972
0.31378227 0.78091341 0.45080557 4293138972
0.29416168 0.7791667 0.49518704 4293138972
0.28676835 0.78032064 0.47683108 4293138972
0.24536829 0.76795501 0.45214564 4281827000
0.31320992 0.8094734 0.47183913 4293138972
0.29434967 0.7776677 0.46716851 4293138972
0.16381235 0.68435591 0.41509417 4281827000
0.27891722 0.78044772 0.44803435 4293138972
0.12348177 0.62176448 0.39311582 4281827000
0.3058171 0.77761966 0.4522469 4293138972
0.15403832 0.63620228 0.39764231 4281827000
0.11655083 0.6149382 0.38366747 4281827000
0.11307613 0.61249501 0.37882853 4281827000
0.30969697 0.77988887 0.44482055 4293138972
0.29393601 0.78105414 0.48999 4293138972
0.1532992 0.66805172 0.41730085 4281827000
0.31227916 0.79233539 0.4698635 4293138972
0.30999303 0.78115427 0.46917722 4293138972
0.23031987 0.75727612 0.42882818 4281827000
0.33166066 0.79456699 0.45204672 4293138972
0.23987493 0.74375212 0.32962132 4294967091
0.29247898 0.78043884 0.48582461 4293138972
0.27152577 0.77916163 0.47453874 4293138972
0.25971708 0.77346778 0.4673757 4293138972
0.29309094 0.78080034 0.47692594 4293138972
0.27920088 0.77951014 0.4508509 4293138972
0.30602983 0.77808505 0.45732218 4293138972
0.12097199 0.61983877 0.39171287 4281827000
0.32459322 0.78835845 0.45134237 4293138972
0.30810201 0.77938884 0.44653475 4293138972
0.27140239 0.77765155 0.47091568 4293138972
0.30910107 0.79321569 0.47275028 4293138972
0.30625707 0.77997762 0.46789056 4293138972
0.12047897 0.61806613 0.38794622 4281827000
0.15809914 0.62156814 0.35633174 4294967091
0.14366454 0.61086601 0.28379428 4294967091
0.30588627 0.7931267 0.47645834 4293138972
0.12358442 0.62304097 0.39519945 4281827000
0.16020018 0.68358004 0.41717929 4281827000
0.16014828 0.68160528 0.41654596 4281827000
0.15167001 0.66064656 0.41590044 4281827000
0.15048575 0.65875405 0.41616261 4281827000
0.14559142 0.65108663 0.41374969 4281827000
0.3145836 0.78572124 0.46611851 4293138972
0.13014153 0.63173085 0.40103319 4281827000
0.12481527 0.62537521 0.39694959 4281827000
0.24693376 0.7611295 0.42661229 4281827000
0.306519 0.797288 0.4760538 4293138972
0.12708016 0.62786412 0.39806473 4281827000
0.14542103 0.60908598 0.2756846 4294967091
0.15518776 0.66926712 0.41616139 4281827000
0.32625416 0.7917217 0.45487481 4293138972
0.29580238 0.79603988 0.48506442 4293138972
0.28269547 0.78074038 0.47722512 4293138972
0.26900691 0.77808768 0.47144049 4293138972
0.29069343 0.77872938 0.47006318 4293138972
0.31079844 0.80424231 0.47334671 4293138972
0.25080568 0.76300371 0.42701373 4281827000
0.077980839 0.59247035 0.30005381 4281827000
0.28239661 0.80765671 0.48559135 4293138972
0.15031067 0.65624535 0.41466555 4281827000
0.13927272 0.63821703 0.40616372 4281827000
0.24123646 0.76334059 0.43728843 4281827000
0.28689778 0.77953589 0.47240189 4293138972
0.32320058 0.7877574 0.45193616 4293138972
0.27192789 0.79282987 0.42666429 4281827000
0.1561525 0.6191678 0.3641583 4294967091
0.14960386 0.62333471 0.32078856 4294967091
0.069463082 0.59108043 0.28815863 4281827000
0.14819905 0.62130207 0.31849268 4294967091
0.15054113 0.65322977 0.41337559 4281827000
0.14190355 0.64059901 0.4077965 4281827000
0.12725575 0.62939513 0.40006989 4281827000
0.26425272 0.77016932 0.44274947 4281827000
0.30811429 0.77869624 0.45503777 4293138972
0.18217248 0.67907512 0.40398788 4281827000
0.15328524 0.61856449 0.36699677 4294967091
0.15736941 0.62039268 0.35860184 4294967091
0.23431888 0.7529158 0.42120993 4281827000
0.083805725 0.59522474 0.31399167 4281827000
0.14398369 0.6101445 0.28075257 4294967091
0.14790127 0.6535154 0.41431075 4281827000
0.14105746 0.64313006 0.40937504 4281827000
0.13159052 0.63373089 0.40244994 4281827000
0.12739183 0.63121647 0.40118691 4281827000
0.1148528 0.61390996 0.38099071 4281827000
0.23767042 0.74394399 0.40530038 4281827000
0.20326942 0.68954289 0.35907993 4281827000
0.28863406 0.7807709 0.48096469 4293138972
0.28243133 0.77935761 0.4715417 4293138972
0.32202542 0.7877841 0.45533007 4293138972
0.090823591 0.59700704 0.33000904 4281827000
0.080741443 0.59330785 0.30988276 4281827000
0.2938922 0.78020245 0.49203932 4293138972
0.13977899 0.64086521 0.40867838 4281827000
0.21836072 0.74624819 0.41884199 4281827000
0.2989361 0.78836918 0.484956 4293138972
0.30134353 0.78897941 0.47793308 4293138972
0.31838012 0.78449273 0.43938082 4293138972
0.085970126 0.59558433 0.3198404 4281827000
0.27327394 0.77470487 0.45614311 4293138972
0.26272756 0.77109969 0.45279261 4281827000
0.26972717 0.77480549 0.44126701 4281827000
0.29833609 0.7945022 0.48010138 4293138972
0.32330868 0.78601497 0.43917751 4293138972
0.093760595 0.59913743 0.33922669 4281827000
0.29870215 0.78548485 0.4942514 4293138972
0.31783271 0.79061002 0.46331969 4293138972
0.31412038 0.78319126 0.46146312 4293138972
0.29479733 0.78229344 0.48738644 4293138972
0.14969076 0.66193599 0.41756275 4281827000
0.091695897 0.59653842 0.33435068 4281827000
0.25736481 0.7716682 0.4585897 4281827000
0.28996095 0.77976274 0.4752079 4293138972
0.24310687 0.74839509 0.32938549 4294967091
0.27754959 0.77965921 0.47443506 4293138972
0.29422385 0.77954537 0.47179854 4293138972
0.15125196 0.62513942 0.32443032 4294967091
0.29569274 0.7812165 0.49693576 4293138972
0.31042284 0.78389978 0.46972084 4293138972
0.25583029 0.76781291 0.4451535 4281827000
0.28762072 0.80235523 0.49557701 4293138972
0.29801306 0.78665817 0.48665172 4293138972
0.26278764 0.78953916 0.41747725 4281827000
0.14792109 0.62200516 0.27567801 4294967091
0.24014647 0.74300599 0.28001484 4294967091
0.15163051 0.66517806 0.41764939 4281827000
0.30150136 0.77758908 0.4629468 4293138972
0.27053872 0.79325652 0.42253056 4281827000
0.26258639 0.7910139 0.41560215 4281827000
0.25045717 0.78994232 0.39687979 4281827000
0.24049172 0.74309415 0.3483243 4294967091
0.24590939 0.7499398 0.2713505 4294967091
0.30836231 0.78024614 0.46205306 4293138972
0.26451185 0.77040869 0.44605121 4281827000
0.11989459 0.62014276 0.36799538 4281827000
0.24271226 0.74672884 0.31452 4294967091
0.2836785 0.80826199 0.48492447 4293138972
0.25743642 0.77046704 0.45284161 4281827000
0.14936669 0.62319404 0.28219604 4294967091
0.16892006 0.66457134 0.40930387 4281827000
0.18202759 0.70401174 0.40824139 4281827000
0.18130988 0.69406903 0.40663439 4281827000
0.29791683 0.78596109 0.49009827 4293138972
0.28157955 0.77785069 0.4668414 4293138972
0.29710674 0.78194129 0.47507313 4293138972
0.15584302 0.63362801 0.3022185 4294967091
0.24092321 0.74305719 0.2766867 4294967091
0.30385453 0.79824978 0.47722611 4293138972
0.23680751 0.73372751 0.36746663 4281827000
0.15027846 0.62620342 0.28941733 4294967091
0.30866265 0.79703903 0.47324026 4293138972
0.31182852 0.80374295 0.47003654 4293138972
0.074300021 0.59104759 0.29795316 4281827000
0.06884905 0.58967018 0.290663 4281827000
0.30114853 0.80271381 0.47760254 4293138972
0.27134046 0.77382118 0.45117855 4281827000
0.29885972 0.78674632 0.47909683 4293138972
0.29702258 0.77924514 0.4696655 4293138972
0.29486695 0.80666858 0.49616021 4293138972
0.34090027 0.79113919 0.43711716 4293138972
0.34330851 0.79722881 0.43711656 4293138972
0.15802753 0.63583308 0.30676052 4294967091
0.34095138 0.79749805 0.44268873 4293138972
0.30793351 0.79998142 0.47504368 4293138972
0.24546994 0.75706714 0.32296717 4294967091
0.24242291 0.74401283 0.2705563 4294967091
0.26781157 0.77469891 0.46057117 4293138972
0.24071136 0.74534333 0.29593119 4294967091
0.27568987 0.77591246 0.46352047 4293138972
0.24383101 0.74396557 0.26678193 4294967091
0.24489404 0.74881798 0.27730197 4294967091
0.14911066 0.62458402 0.28502157 4294967091
0.2452765 0.78555095 0.36488205 4281827000
0.29732335 0.7840994 0.49595737 4293138972
0.15831041 0.63739735 0.31062016 4294967091
0.24551274 0.74790871 0.27335066 4294967091
0.24489664 0.7549088 0.31285733 4294967091
0.30289334 0.78982139 0.47694263 4293138972
0.2978335 0.7855199 0.49190697 4293138972
0.22806184 0.72344488 0.38564563 4281827000
0.23150471 0.7363112 0.34878218 4281827000
0.28278053 0.78136331 0.47896975 4293138972
0.24259864 0.78825903 0.36266568 4281827000
0.24370933 0.74892807 0.28756008 4294967091
0.27738819 0.7846669 0.44129932 4293138972
0.24972652 0.74998605 0.36659244 4281827000
0.24449135 0.75268656 0.30599797 4294967091
0.2284113 0.72811466 0.39142597 4281827000
0.24069074 0.79395998 0.38087901 4281827000
0.23946795 0.79497063 0.37866545 4281827000
0.19991751 0.73208624 0.41295266 4281827000
0.24188516 0.74641067 0.29482594 4294967091
0.29718444 0.7829088 0.47691044 4293138972
0.24672538 0.7586394 0.32566094 4294967091
0.34088498 0.79860282 0.44374645 4293138972
0.22809951 0.73068541 0.35079098 4281827000
0.25630689 0.79219568 0.40628904 4281827000
0.077064931 0.59983015 0.28998697 4281827000
0.24972405 0.76838779 0.3509059 4294967091
0.24803126 0.7652669 0.34580168 4294967091
0.24685389 0.75996935 0.33753431 4294967091
0.3122136 0.80320978 0.46790054 4293138972
0.32878751 0.79995918 0.45307466 4293138972
0.23889443 0.74298692 0.40019655 4281827000
0.2444696 0.74766135 0.30504215 4294967091
0.20830664 0.73075604 0.40999267 4281827000
0.32401553 0.80042303 0.45727408 4293138972
0.16455542 0.64722669 0.32727987 4294967091
0.21104436 0.72792846 0.40709171 4281827000
0.34135729 0.80088389 0.44744265 4293138972
0.34009218 0.79912382 0.44202489 4293138972
0.20529129 0.72556514 0.40754545 4281827000
0.26887998 0.79430217 0.41881496 4281827000
0.26002029 0.79181767 0.41263109 4281827000
0.25840795 0.79118091 0.40989855 4281827000
0.26721293 0.79379141 0.41624737 4281827000
0.1533363 0.62945491 0.29761624 4294967091
0.32067895 0.79085833 0.45884502 4293138972
0.34652793 0.79602402 0.43719399 4293138972
0.24251056 0.78998357 0.37083817 4281827000
0.094634138 0.66102546 0.26211524 4294967091
0.10577237 0.61709088 0.35083798 4281827000
0.34137473 0.7997545 0.44114059 4293138972
0.2958819 0.78056532 0.49222547 4293138972
0.22303498 0.74192637 0.41398445 4281827000
0.24487515 0.79081684 0.38711739 4281827000
0.23105951 0.72783196 0.3661775 4281827000
0.23805732 0.79513735 0.37510622 4281827000
0.24350539 0.78885382 0.36926457 4281827000
0.21434656 0.72959644 0.40645286 4281827000
0.25663227 0.78897178 0.40432602 4281827000
0.2523407 0.78938884 0.39874664 4281827000
0.34424993 0.79644918 0.43177435 4293138972
0.3426213 0.79467118 0.43051583 4293138972
0.21168283 0.72113883 0.40212363 4281827000
0.2847774 0.8033753 0.48622841 4293138972
0.21149738 0.73106819 0.40867582 4281827000
0.34227446 0.79168248 0.43735111 4293138972
0.14691903 0.62293261 0.27769938 4294967091
0.34342614 0.79254776 0.43286926 4293138972
0.29577151 0.78327793 0.49365485 4293138972
0.20868547 0.72144657 0.40406322 4281827000
0.24975836 0.78980649 0.39361438 4281827000
0.24450079 0.79052794 0.38839224 4281827000
0.34568062 0.79591835 0.43281052 4293138972
0.34439462 0.79381162 0.43133914 4293138972
0.24282405 0.78971064 0.38348022 4281827000
0.34369817 0.79739577 0.43497425 4293138972
0.34506977 0.79438734 0.43347606 4293138972
0.34397984 0.793455 0.43278986 4293138972
0.34452853 0.79750162 0.43007895 4293138972
0.3417581 0.79522055 0.42996344 4293138972
0.16401435 0.64494646 0.32350263 4294967091
0.25228235 0.77105594 0.35337928 4294967091
0.34659845 0.79665041 0.43443185 4293138972
0.24251345 0.79016954 0.38502795 4281827000
0.24936061 0.76863897 0.35077778 4294967091
0.24242125 0.74592686 0.31100067 4294967091
0.25563431 0.77345514 0.35610953 4294967091
0.24954009 0.76725525 0.34854251 4294967091
0.21234833 0.73588771 0.41195145 4281827000
0.32986107 0.79421091 0.45009941 4293138972
0.34383956 0.8026793 0.44725338 4293138972
0.34384751 0.79810613 0.43293098 4293138972
0.16177595 0.64258116 0.31825763 4294967091
0.24473828 0.78225106 0.35928097 4281827000
0.32907209 0.79279125 0.45116881 4293138972
0.25914571 0.77585119 0.41273266 4281827000
0.30317813 0.78573406 0.4751325 4293138972
0.088315472 0.61045665 0.31032345 4281827000
0.25234476 0.79550904 0.38279963 4281827000
0.34181944 0.79743046 0.43351844 4293138972
0.34283876 0.79489523 0.43273014 4293138972
0.24609642 0.78229487 0.36141351 4281827000
0.2056805 0.72827661 0.40851843 4281827000
0.33237875 0.7935645 0.44899052 4293138972
0.33704719 0.79097766 0.44208437 4293138972
0.28151423 0.80629665 0.48689488 4293138972
0.31989068 0.79252285 0.46121681 4293138972
0.31798247 0.78590101 0.45854643 4293138972
0.32058221 0.78610551 0.45339239 4293138972
0.24860613 0.75856364 0.41397405 4281827000
0.3366895 0.79417491 0.44673446 4293138972
0.213907 0.70701021 0.34731111 4281827000
0.29865018 0.78820622 0.4812597 4293138972
0.31398451 0.79320091 0.4646236 4293138972
0.31348917 0.78452754 0.46178359 4293138972
0.31379217 0.78243726 0.46014169 4293138972
0.31197482 0.781587 0.45694572 4293138972
0.32325587 0.79211044 0.45723334 4293138972
0.32097912 0.78747654 0.45621067 4293138972
0.3236199 0.78948867 0.4540787 4293138972
0.3257015 0.78964746 0.45085704 4293138972
0.33235729 0.79471427 0.44990143 4293138972
0.33039764 0.79123932 0.44725049 4293138972
0.33229917 0.79192036 0.44769272 4293138972
0.29649872 0.78424668 0.47778514 4293138972
0.34324211 0.79819882 0.4366093 4293138972
0.2430331 0.76016039 0.3223021 4294967091
0.24509567 0.75448686 0.30894977 4294967091
0.20204675 0.72656405 0.40888041 4281827000
0.23575728 0.74108946 0.40218511 4281827000
0.34176725 0.79905796 0.43740323 4293138972
0.34447193 0.79639423 0.43814206 4293138972
0.16634487 0.65151626 0.33565456 4294967091
0.31099245 0.79459298 0.46871188 4293138972
0.26914129 0.78523105 0.42577481 4281827000
0.3258979 0.78850198 0.44760603 4293138972
0.25209266 0.79042983 0.39936292 4281827000
0.25024068 0.79075599 0.3948954 4281827000
0.24161617 0.74501544 0.29050586 4294967091
0.29951546 0.78831345 0.47871369 4293138972
0.25374964 0.79089379 0.40138832 4281827000
0.17096756 0.65487677 0.34152007 4294967091
0.16588975 0.65009415 0.33105117 4294967091
0.190742 0.72659647 0.4119029 4281827000
0.15571548 0.62475079 0.3772521 4281827000
0.24327919 0.75581092 0.31441239 4294967091
0.29374984 0.78301054 0.47914448 4293138972
0.34229016 0.79923809 0.43910092 4293138972
0.17581095 0.66231638 0.35036227 4294967091
0.21950205 0.74258393 0.41540667 4281827000
0.10128433 0.6182788 0.34075317 4281827000
0.2482271 0.75760674 0.39628097 4281827000
0.34302455 0.79874098 0.43514735 4293138972
0.24914268 0.75979918 0.38738585 4281827000
0.25279135 0.76053655 0.37625092 4281827000
0.34576127 0.80406803 0.44580308 4293138972
0.24462347 0.75038618 0.28653219 4294967091
0.31074035 0.79916781 0.46994922 4293138972
0.31680062 0.78857112 0.46125495 4293138972
0.1488498 0.6280567 0.28950056 4294967091
0.24345884 0.75173062 0.29220882 4294967091
0.29641172 0.78521138 0.4927626 4293138972
0.29464582 0.78228217 0.49077097 4293138972
0.30075109 0.79021937 0.47906777 4293138972
0.1566187 0.62428343 0.37466493 4281827000
0.25326961 0.7913869 0.40246519 4281827000
0.34285605 0.79986715 0.44048339 4293138972
0.25808182 0.79114336 0.40693623 4281827000
0.233192 0.80066508 0.379482 4281827000
0.15921097 0.64049143 0.31345612 4294967091
0.14955384 0.62965006 0.29431757 4294967091
0.14741665 0.62560052 0.28580016 4294967091
0.14911307 0.64261633 0.40322733 4281827000
0.25728014 0.79162991 0.40680209 4281827000
0.29967192 0.78790647 0.49092636 4293138972
0.33623797 0.80184799 0.4497461 4293138972
0.25570434 0.79159737 0.40850744 4281827000
0.34022313 0.80100656 0.44297406 4293138972
0.34098941 0.79677337 0.430915 4293138972
0.24184322 0.78909332 0.36512703 4281827000
0.31264839 0.79914939 0.46744671 4293138972
0.25026175 0.79128772 0.39880425 4281827000
0.30027682 0.78704852 0.47661045 4293138972
0.14626296 0.64185148 0.40332854 4281827000
0.3182475 0.78463012 0.44395 4293138972
0.33937925 0.80028313 0.44269642 4293138972
0.15424752 0.63201791 0.29956013 4294967091
0.25505397 0.79132777 0.41009232 4281827000
0.25386092 0.79234469 0.40111735 4281827000
0.078941382 0.60334629 0.29335207 4281827000
0.24230419 0.78963196 0.36650375 4281827000
0.25246054 0.79528123 0.40493223 4281827000
0.15805063 0.6414513 0.31419784 4294967091
0.31298336 0.79124153 0.46698087 4293138972
0.19749928 0.72126311 0.40715572 4281827000
0.31656641 0.7900973 0.46102768 4293138972
0.31814206 0.78888702 0.45980266 4293138972
0.20807062 0.71874321 0.40295863 4281827000
0.29585016 0.78535563 0.48219568 4293138972
0.34111172 0.80025399 0.4446891 4293138972
0.2399848 0.80014396 0.39598712 4281827000
0.25027436 0.77632791 0.37130678 4281827000
0.29468691 0.78460312 0.49468279 4293138972
0.29760474 0.78564578 0.48870245 4293138972
0.33003661 0.80030507 0.45188379 4293138972
0.2318669 0.73876059 0.40278277 4281827000
0.21238548 0.72674 0.40473369 4281827000
0.31971315 0.80010086 0.45661733 4293138972
0.21653494 0.70457351 0.37443241 4281827000
0.17301123 0.66060251 0.347269 4294967091
0.24623571 0.74481809 0.26175979 4294967091
0.30061045 0.78806305 0.49277177 4293138972
0.29317266 0.80127728 0.48064464 4293138972
0.30181879 0.80310446 0.45190907 4293138972
0.31528392 0.80340153 0.46327826 4293138972
0.3160722 0.80208391 0.46214852 4293138972
0.31796697 0.80179256 0.45947844 4293138972
0.31986153 0.80125737 0.45815352 4293138972
0.21300483 0.70026064 0.37502638 4281827000
0.25119981 0.79087794 0.39629179 4281827000
0.22157516 0.71216542 0.37330148 4281827000
0.2995865 0.78735608 0.49411958 4293138972
0.20796688 0.72545606 0.40595272 4281827000
0.21509422 0.72049391 0.39974311 4281827000
0.33419418 0.80355895 0.45467553 4293138972
0.25153789 0.76996601 0.37452355 4281827000
0.24423134 0.75046253 0.28137043 4294967091
0.18923724 0.7237162 0.41097337 4281827000
0.31422341 0.80438352 0.46438786 4293138972
0.25110236 0.76164567 0.41066962 4281827000
0.098989792 0.61795169 0.33320269 4281827000
0.33978742 0.79949349 0.44636425 4293138972
0.34058282 0.80053967 0.4423553 4293138972
0.16156024 0.64447564 0.31981415 4294967091
0.24222684 0.75561464 0.28995329 4294967091
0.3127999 0.81056207 0.47303349 4293138972
0.20158109 0.719886 0.4055047 4281827000
0.10393266 0.61802852 0.34728724 4281827000
0.08265996 0.60734802 0.2990793 4281827000
0.3132197 0.8083207 0.46852678 4293138972
0.21551675 0.74092424 0.41328508 4281827000
0.10268265 0.61856639 0.3439312 4281827000
0.24194054 0.78773308 0.37473065 4281827000
0.21900846 0.70793432 0.37482658 4281827000
0.31082553 0.81038481 0.4746601 4293138972
0.3145946 0.81140304 0.47157305 4293138972
0.10559348 0.6200425 0.34954721 4281827000
0.085831515 0.61004186 0.30527145 4281827000
0.24891891 0.7740283 0.37933683 4281827000
0.31592521 0.81197828 0.47036734 4293138972
0.31478071 0.80003083 0.46442869 4293138972
0.091632135 0.66272318 0.26376909 4294967091
0.29753917 0.78464109 0.47828892 4293138972
0.33954135 0.7994982 0.44783464 4293138972
0.24447185 0.7571131 0.31659728 4294967091
0.31466097 0.79673642 0.46549091 4293138972
0.23730393 0.73729056 0.39127871 4281827000
0.23998407 0.79282564 0.36561289 4281827000
0.31118 0.79530936 0.46739322 4293138972
0.21056239 0.69774306 0.37374961 4281827000
0.34344438 0.79956436 0.43140596 4293138972
0.15604065 0.63913697 0.30951142 4294967091
0.24187425 0.75476682 0.29117507 4294967091
0.33731094 0.80050933 0.44816992 4293138972
0.21746615 0.70546639 0.37215656 4281827000
0.34281942 0.79957628 0.43283123 4293138972
0.24437809 0.75458872 0.30559614 4294967091
0.10354075 0.62100047 0.34470406 4281827000
0.34242374 0.80050725 0.43518749 4293138972
0.25927824 0.79210049 0.41303104 4281827000
0.34015718 0.80177534 0.43668702 4293138972
0.20318657 0.72304833 0.40642282 4281827000
0.088060901 0.61392701 0.31129003 4281827000
0.31432274 0.78885508 0.46356025 4293138972
0.25835317 0.77452958 0.409159 4281827000
0.094385065 0.6570341 0.26036379 4294967091
0.14648063 0.61356026 0.27349061 4294967091
0.21373178 0.72333145 0.40229186 4281827000
0.32203701 0.80001956 0.45591518 4293138972
0.16720529 0.65336692 0.3366757 4294967091
0.1690456 0.69985473 0.41306642 4281827000
0.17092833 0.65734231 0.3439633 4294967091
0.34148583 0.79047275 0.4337559 4293138972
0.15956967 0.64555317 0.32037905 4294967091
0.23642257 0.79551309 0.36497256 4281827000
0.24462402 0.75568855 0.31030926 4294967091
0.086186573 0.61202794 0.30683368 4281827000
0.24018957 0.73757631 0.36515725 4281827000
0.15537708 0.63675255 0.30722055 4294967091
0.24124196 0.75585091 0.29348505 4294967091
0.31153238 0.80556649 0.4654119 4293138972
0.2230437 0.71591383 0.37607655 4281827000
0.34299794 0.79958308 0.43115669 4293138972
0.21714306 0.72514856 0.40093511 4281827000
0.22518201 0.72690266 0.39404082 4281827000
0.25249469 0.79896837 0.41230941 4281827000
0.16596031 0.65533304 0.33844984 4294967091
0.29486284 0.78466392 0.48960736 4293138972
0.33096638 0.80416453 0.45727968 4293138972
0.2560612 0.77911484 0.40541223 4281827000
0.33231914 0.8048889 0.45580515 4293138972
0.34135297 0.79882878 0.43432021 4293138972
0.23388344 0.73126471 0.36562216 4281827000
0.2312123 0.72969657 0.36179969 4281827000
0.093747564 0.65979344 0.2648696 4294967091
0.24485512 0.76416522 0.34261948 4294967091
0.29529494 0.78294349 0.4889124 4293138972
0.30688089 0.78142184 0.47026432 4293138972
0.082987778 0.60913956 0.30135754 4281827000
0.09197282 0.66151643 0.26832741 4294967091
0.29654306 0.78521401 0.49061087 4293138972
0.32842967 0.78917933 0.44626206 4293138972
0.091551445 0.61422545 0.31798667 4281827000
0.16479059 0.65166748 0.3321178 4294967091
0.16143817 0.64735204 0.32335499 4294967091
0.23336786 0.73267978 0.36003554 4281827000
0.24588238 0.7823087 0.36773127 4281827000
0.24301325 0.75543094 0.31151861 4294967091
0.24204932 0.75970274 0.31143686 4294967091
0.24118708 0.74519366 0.3999984 4281827000
0.2517921 0.76537502 0.37102488 4281827000
0.24472611 0.74470633 0.26481104 4294967091
0.32890704 0.80565149 0.45881739 4293138972
0.25037313 0.76056373 0.41026816 4281827000
0.078076489 0.60578084 0.29442117 4281827000
0.24978897 0.75912696 0.38544759 4281827000
0.22913665 0.72550803 0.37886697 4281827000
0.074878886 0.59963942 0.28601962 4281827000
0.2513347 0.76194596 0.37716863 4281827000
0.24409232 0.76799333 0.34617525 4294967091
