# .PCD v0.7 - Point Cloud Data file format
VERSION 0.7
FIELDS x y z rgba
SIZE 4 4 4 4
TYPE F F F U
COUNT 1 1 1 1
WIDTH 1095
HEIGHT 1
VIEWPOINT 0 0 0 1 0 0 0
POINTS 1095
DATA ascii
0.24781691 0.81939328 0.38650447 4293138972
0.17637141 0.71227628 0.35089368 4281827000
0.17715219 0.71451116 0.35061803 4281827000
0.19939964 0.73530227 0.34930936 4281827000
0.20183225 0.7382794 0.34979725 4281827000
0.14427222 0.67219889 0.30203113 4281827000
0.20338942 0.74439961 0.34976551 4281827000
0.13861981 0.66436148 0.28502911 4281827000
0.23426652 0.80871719 0.37590221 4293138972
0.24310127 0.81417155 0.38145867 4293138972
0.25010523 0.82154047 0.38720757 4293138972
0.20416059 0.74000448 0.34984374 4281827000
0.20477793 0.75346601 0.35074672 4281827000
0.20790383 0.75468153 0.35197139 4281827000
0.22899763 0.78555691 0.36943695 4281827000
0.2306412 0.78887802 0.36887705 4293138972
0.13229696 0.65752667 0.27280661 4281827000
0.23616003 0.80935979 0.37934792 4293138972
0.24462071 0.81615627 0.38488913 4293138972
0.24700679 0.81574416 0.38683698 4293138972
0.24954829 0.81737614 0.38691527 4293138972
0.14066064 0.66591555 0.28944921 4281827000
0.13534303 0.66157323 0.27807298 4281827000
0.18180019 0.71519655 0.3514713 4281827000
0.14887354 0.70468831 0.31900883 4281827000
0.20521103 0.7510643 0.35073635 4281827000
0.20729074 0.75227612 0.35192308 4281827000
0.20999674 0.75060928 0.35203302 4281827000
0.24671356 0.812011 0.38555464 4293138972
0.25235659 0.83652258 0.38519305 4293138972
0.1480805 0.70499778 0.3160131 4281827000
0.14781217 0.7044642 0.3127487 4281827000
0.14882569 0.70618927 0.31426281 4281827000
0.14825609 0.70634341 0.31056568 4281827000
0.2378421 0.81032926 0.37987241 4293138972
0.23987442 0.81133348 0.37989658 4293138972
0.24689096 0.85504991 0.37716919 4293138972
0.2495282 0.85930538 0.37535962 4293138972
0.17397803 0.71200728 0.34994856 4281827000
0.17851867 0.71243107 0.35204121 4281827000
0.18218361 0.71495903 0.35393742 4281827000
0.21709745 0.77593786 0.35863397 4281827000
0.23913737 0.80919629 0.38124156 4293138972
0.24544545 0.81158358 0.38155448 4293138972
0.23632646 0.80792016 0.3772575 4293138972
0.15936738 0.66903281 0.28935605 4294967091
0.24805832 0.83474422 0.38533175 4293138972
0.21702622 0.78364986 0.27175677 4294967091
0.17721388 0.71030676 0.34977299 4281827000
0.17026076 0.70647693 0.3466073 4281827000
0.17170289 0.71078193 0.3488397 4281827000
0.21804281 0.77348411 0.36044028 4281827000
0.22148398 0.77681345 0.36211047 4281827000
0.22384274 0.77871573 0.36377695 4281827000
0.23556045 0.80802512 0.38041911 4293138972
0.2337701 0.80555606 0.37504968 4293138972
0.24834752 0.83251214 0.38546655 4293138972
0.23083846 0.80783087 0.33657694 4293138972
0.19342017 0.72759324 0.35195714 4281827000
0.19635335 0.72799581 0.35142571 4281827000
0.20003027 0.73323435 0.34977865 4281827000
0.20610057 0.74824131 0.35067445 4281827000
0.22804104 0.77796495 0.36658219 4281827000
0.13648261 0.66220647 0.28045788 4281827000
0.22799373 0.78055233 0.36744285 4281827000
0.22986057 0.7830655 0.36860454 4281827000
0.1348843 0.66035169 0.27701828 4281827000
0.25186223 0.83250493 0.38689014 4293138972
0.21770817 0.77215236 0.35828915 4281827000
0.23504636 0.78823006 0.37215063 4293138972
0.17440224 0.70904857 0.34872454 4281827000
0.19016102 0.72413677 0.35217524 4281827000
0.21639782 0.76568526 0.35867271 4281827000
0.23656246 0.78581572 0.37227824 4293138972
0.23698813 0.78700572 0.37325692 4293138972
0.2311323 0.78436989 0.37030822 4281827000
0.14326702 0.67061919 0.2991834 4281827000
0.23258783 0.78248441 0.36966404 4281827000
0.192003 0.72446221 0.35318393 4281827000
0.19617485 0.73045403 0.3508254 4281827000
0.20316029 0.73675883 0.34937063 4281827000
0.20981735 0.75650597 0.35324281 4281827000
0.21140788 0.75789827 0.35412389 4281827000
0.21348383 0.75784713 0.35573709 4281827000
0.215959 0.76033908 0.35685748 4281827000
0.22779314 0.77504569 0.36531794 4281827000
0.22334859 0.776034 0.36396047 4281827000
0.13154326 0.65409583 0.27089155 4281827000
0.20812982 0.74958533 0.35127068 4281827000
0.23187463 0.77800292 0.36850792 4281827000
0.18780376 0.72144574 0.35366213 4281827000
0.18312301 0.71707481 0.35470399 4281827000
0.18626636 0.7171275 0.35419342 4281827000
0.20579807 0.74620092 0.35029009 4281827000
0.23713821 0.78286904 0.37146533 4281827000
0.16814847 0.7064181 0.34511966 4281827000
0.23426045 0.78466338 0.37075678 4281827000
0.17272162 0.70538878 0.34677824 4281827000
0.14781119 0.70404309 0.31762579 4281827000
0.24139008 0.78893828 0.37355056 4293138972
0.23712784 0.79033649 0.37427667 4293138972
0.23391253 0.7950477 0.3735069 4293138972
0.1692699 0.70341432 0.34532842 4281827000
0.21156459 0.75498408 0.35303757 4281827000
0.21184628 0.74860448 0.35123172 4281827000
0.22969283 0.77902651 0.36795905 4281827000
0.24844737 0.81367725 0.38726264 4293138972
0.25311613 0.8303532 0.38632774 4293138972
0.14837264 0.70228791 0.33124465 4281827000
0.14708923 0.6987862 0.33459166 4281827000
0.15028866 0.7005111 0.33575907 4281827000
0.20552851 0.74227041 0.34981731 4281827000
0.20638637 0.74480003 0.34992713 4281827000
0.20924278 0.7458545 0.35105994 4281827000
0.21176441 0.74596512 0.35131732 4281827000
0.23614988 0.77717888 0.36873466 4281827000
0.20773211 0.7431969 0.35058168 4281827000
0.14295976 0.66857493 0.29426861 4281827000
0.21349303 0.75488675 0.35398948 4281827000
0.21604478 0.75506532 0.35469529 4281827000
0.2353868 0.79202849 0.37366441 4293138972
0.15068024 0.72796625 0.2698485 4294967091
0.14665671 0.69701684 0.33266905 4281827000
0.21804678 0.75941044 0.3576532 4281827000
0.21858139 0.77062595 0.36122388 4281827000
0.22144035 0.77474034 0.36277151 4281827000
0.14895903 0.69767576 0.33474535 4281827000
0.20939593 0.75306851 0.3528415 4281827000
0.17062604 0.70086354 0.34491536 4281827000
0.17460445 0.70620489 0.34833053 4281827000
0.1763763 0.70772362 0.34950289 4281827000
0.14905067 0.67768759 0.31692263 4281827000
0.14959332 0.67930669 0.31491905 4281827000
0.1498162 0.6981985 0.33202204 4281827000
0.20017691 0.73097414 0.35037103 4281827000
0.20399076 0.73656309 0.34993407 4281827000
0.25099975 0.82541859 0.38810658 4293138972
0.2499239 0.82892185 0.38759208 4293138972
0.15720172 0.70014518 0.33833542 4281827000
0.15134832 0.69815153 0.33579692 4281827000
0.24576376 0.81401283 0.38498762 4293138972
0.23626098 0.84041351 0.36491221 4293138972
0.14700815 0.7293635 0.26873872 4294967091
0.17252848 0.70198786 0.34567431 4281827000
0.1542633 0.69887155 0.33600593 4281827000
0.15488586 0.70153725 0.3375017 4281827000
0.1491749 0.69525909 0.33422914 4281827000
0.21506622 0.76384324 0.35754788 4281827000
0.15559143 0.69815969 0.33766562 4281827000
0.15092531 0.69513136 0.33545685 4281827000
0.21331848 0.75063324 0.35250977 4281827000
0.16103384 0.69877946 0.34041455 4281827000
0.16218504 0.69990093 0.34240106 4281827000
0.15373115 0.69587314 0.3372876 4281827000
0.15188944 0.69343168 0.33218011 4281827000
0.20154765 0.73261994 0.3504965 4281827000
0.15724093 0.6966446 0.33718866 4281827000
0.15825477 0.69746661 0.33966947 4281827000
0.15249269 0.69341087 0.33497182 4281827000
0.13384517 0.65907425 0.27698296 4281827000
0.14667904 0.69389987 0.33396533 4281827000
0.20746104 0.74057865 0.3498089 4281827000
0.24741992 0.80952829 0.38557857 4293138972
0.24952178 0.81168312 0.38711014 4293138972
0.23221906 0.80101901 0.37337676 4293138972
0.21573874 0.75677061 0.35569373 4281827000
0.20985384 0.7416383 0.3496196 4281827000
0.1483335 0.70863146 0.30680636 4281827000
0.16448809 0.69996035 0.34402868 4281827000
0.15733384 0.69379389 0.33886048 4281827000
0.15897548 0.69560683 0.33983734 4281827000
0.21567287 0.75077021 0.35333979 4281827000
0.21735953 0.76703936 0.36012241 4281827000
0.15416156 0.69304496 0.33723876 4281827000
0.24880482 0.84274566 0.33787718 4293138972
0.17439048 0.70361274 0.34689799 4281827000
0.17778571 0.70517284 0.34974882 4281827000
0.15779239 0.69172066 0.3385528 4281827000
0.16106902 0.69580525 0.34098062 4281827000
0.16240422 0.69761288 0.34236598 4281827000
0.16665629 0.70098352 0.34440994 4281827000
0.17910053 0.71037835 0.35107109 4281827000
0.18199849 0.71289867 0.35127634 4281827000
0.18461037 0.71399796 0.35311016 4281827000
0.18052632 0.71056527 0.35217476 4281827000
0.18322213 0.71179593 0.35402921 4281827000
0.15706974 0.69245237 0.33594584 4281827000
0.15357842 0.69141209 0.3326461 4281827000
0.14853534 0.69195467 0.33217001 4281827000
0.14547987 0.7182467 0.27670243 4294967091
0.16046406 0.69392985 0.34029371 4281827000
0.1630134 0.69519788 0.34136668 4281827000
0.17866093 0.70744693 0.35039461 4281827000
0.21069111 0.74382222 0.35075757 4281827000
0.21523739 0.74873888 0.3521063 4281827000
0.1743307 0.70093149 0.34560952 4281827000
0.22282353 0.7722044 0.36268032 4281827000
0.23550223 0.78173572 0.37031704 4281827000
0.22119553 0.7599647 0.35786664 4281827000
0.21887635 0.76284444 0.35833159 4281827000
0.23694421 0.81003451 0.37821388 4293138972
0.19550291 0.72662449 0.35245577 4281827000
0.21832675 0.76781303 0.36104605 4281827000
0.22127135 0.7690829 0.36180848 4281827000
0.22543095 0.77374291 0.3641004 4281827000
0.23263161 0.78030241 0.36919326 4281827000
0.15492392 0.73510605 0.26356903 4294967091
0.21990187 0.76552522 0.36035711 4281827000
0.25020617 0.80864519 0.38693598 4293138972
0.25196871 0.81880766 0.38808078 4293138972
0.23849194 0.80652058 0.38015029 4293138972
0.18490763 0.70965743 0.35293895 4281827000
0.23433766 0.80139458 0.37517765 4293138972
0.16933793 0.6999445 0.3434203 4281827000
0.14948986 0.68076879 0.32387239 4281827000
0.24876507 0.8066678 0.38585347 4293138972
0.16658404 0.69757187 0.34342045 4281827000
0.23419054 0.79708838 0.37487441 4293138972
0.23544197 0.80476528 0.37669629 4293138972
0.23903997 0.8104465 0.3810316 4293138972
0.2529918 0.81483847 0.38921553 4293138972
0.18550658 0.7128616 0.35503149 4281827000
0.2500492 0.80450767 0.38455692 4293138972
0.22270444 0.76680249 0.36142275 4281827000
0.21537098 0.74699569 0.3512733 4281827000
0.15901223 0.69244874 0.33967236 4281827000
0.17653291 0.65933764 0.26003638 4294967091
0.14630744 0.73327971 0.26027903 4294967091
0.234928 0.77897805 0.36962426 4281827000
0.16386938 0.69372344 0.34107783 4281827000
0.1651143 0.69574648 0.34257197 4281827000
0.16968296 0.69759208 0.34372151 4281827000
0.22971086 0.77565354 0.36649609 4281827000
0.16489632 0.69213754 0.33967486 4281827000
0.19976839 0.72918928 0.35133192 4281827000
0.24359795 0.78927267 0.37585184 4293138972
0.24218717 0.79044813 0.37546927 4293138972
0.25539783 0.81820595 0.38748926 4293138972
0.15247507 0.72698885 0.27095312 4294967091
0.14985159 0.72573972 0.27710721 4294967091
0.25895512 0.81670487 0.38863844 4293138972
0.15738003 0.68906027 0.33709618 4281827000
0.23730308 0.8041485 0.37778336 4293138972
0.25649118 0.81447905 0.38914144 4293138972
0.25235149 0.8230229 0.38755098 4293138972
0.15138485 0.68578553 0.32730138 4281827000
0.23783468 0.84264261 0.35914814 4293138972
0.16123231 0.69128668 0.33945367 4281827000
0.1897787 0.71735525 0.35503766 4281827000
0.15147342 0.68150961 0.32339618 4281827000
0.15171905 0.68299854 0.32603952 4281827000
0.22201075 0.75707936 0.35711834 4281827000
0.2185553 0.75103635 0.35435 4281827000
0.21593967 0.75291133 0.35447142 4281827000
0.24411008 0.85952812 0.36185563 4293138972
0.24204381 0.78548551 0.37335062 4293138972
0.26151505 0.81868172 0.38899741 4293138972
0.23802704 0.78119522 0.3721725 4281827000
0.17545503 0.69847637 0.34465474 4281827000
0.2061003 0.7357223 0.35061008 4281827000
0.20854634 0.73914522 0.34924257 4281827000
0.21304359 0.74310523 0.34958014 4281827000
0.21322078 0.74430269 0.35141551 4281827000
0.14512676 0.7264359 0.26177934 4294967091
0.22120389 0.76261449 0.35939661 4281827000
0.18195094 0.70821613 0.35210016 4281827000
0.232226 0.77313048 0.36557236 4281827000
0.279369 0.80314785 0.26358226 4294967091
0.18333095 0.70638758 0.35244876 4281827000
0.21583682 0.74336863 0.35050893 4281827000
0.1474697 0.71734726 0.28145516 4294967091
0.25230154 0.80934411 0.38768324 4293138972
0.15368177 0.68627775 0.33101434 4281827000
0.15362832 0.68930721 0.33238694 4281827000
0.20491806 0.73467332 0.34972611 4281827000
0.25210294 0.80386299 0.38548344 4293138972
0.25169015 0.80623895 0.38674545 4293138972
0.21448267 0.79152209 0.28456986 4294967091
0.18766767 0.71469098 0.35472974 4281827000
0.2239214 0.76149976 0.35903168 4281827000
0.22442813 0.77061039 0.36290962 4281827000
0.14537136 0.71747822 0.27910632 4294967091
0.22579479 0.76829046 0.36276096 4281827000
0.24379587 0.86083502 0.35967118 4293138972
0.26174632 0.79204696 0.27880505 4294967091
0.22369581 0.76439667 0.36086619 4281827000
0.22710179 0.77713811 0.36446995 4281827000
0.22945137 0.77342314 0.36529899 4281827000
0.23229782 0.77591759 0.36774898 4281827000
0.23669103 0.79740232 0.37630126 4293138972
0.21921709 0.75426012 0.35516736 4281827000
0.21384983 0.79067463 0.29082721 4294967091
0.22708932 0.7713626 0.36393437 4281827000
0.27908853 0.80215907 0.26545748 4294967091
0.20583424 0.73314905 0.35027814 4281827000
0.21905264 0.75703174 0.35631484 4281827000
0.2355233 0.84225065 0.36647764 4293138972
0.28568509 0.80416101 0.26111642 4294967091
0.24440715 0.80095798 0.38027287 4293138972
0.20189139 0.72929972 0.35137662 4281827000
0.17062417 0.69403058 0.34228441 4281827000
0.1522657 0.69006681 0.33043846 4281827000
0.2096834 0.73822659 0.34919822 4281827000
0.24505341 0.80817741 0.38388029 4293138972
0.21230574 0.74121916 0.3492924 4281827000
0.19492917 0.72444069 0.35292882 4281827000
0.20972884 0.73784637 0.35066813 4281827000
0.16751732 0.69368362 0.3408756 4281827000
0.15001437 0.68319726 0.32439828 4281827000
0.2475463 0.80680192 0.3834163 4293138972
0.1727775 0.69579023 0.34271663 4281827000
0.17619133 0.69619644 0.34452537 4281827000
0.17622593 0.70306462 0.34747797 4281827000
0.19196224 0.72070402 0.35439599 4281827000
0.24762923 0.80358529 0.38308883 4293138972
0.24591102 0.80492538 0.38172662 4293138972
0.24938056 0.8022173 0.38335642 4293138972
0.21459581 0.79158849 0.29141232 4294967091
0.24737744 0.80184203 0.38094091 4293138972
0.18981712 0.7150321 0.35561901 4281827000
0.21415544 0.79134399 0.29214934 4294967091
0.28011197 0.80151743 0.26644397 4294967091
0.17711714 0.70463878 0.34822485 4281827000
0.24563967 0.86291844 0.35875067 4293138972
0.2783004 0.80016619 0.26847064 4294967091
0.19905552 0.72523737 0.3517468 4281827000
0.17800114 0.70166916 0.34774938 4281827000
0.17972241 0.70315146 0.34944999 4281827000
0.1806989 0.70579386 0.35057336 4281827000
0.17785452 0.69918895 0.34679213 4281827000
0.17983097 0.70127386 0.348519 4281827000
0.17647368 0.70087874 0.34639743 4281827000
0.15531525 0.69051427 0.33577582 4281827000
0.15571876 0.68765324 0.33246759 4281827000
0.156854 0.68884826 0.33449069 4281827000
0.15383014 0.68610084 0.32872361 4281827000
0.21709777 0.74580681 0.35119757 4281827000
0.24730597 0.844001 0.33619165 4293138972
0.1457593 0.68230259 0.32313779 4281827000
0.14921781 0.71958399 0.28352791 4294967091
0.27603483 0.79870009 0.27063021 4294967091
0.16603079 0.69184309 0.34056053 4281827000
0.21556778 0.74199688 0.34952903 4281827000
0.21773161 0.74260908 0.35089007 4281827000
0.21817911 0.74914098 0.35299104 4281827000
0.22443783 0.75855833 0.35813615 4281827000
0.23245086 0.77027583 0.36491269 4281827000
0.14972034 0.68571866 0.32376504 4281827000
0.22259223 0.75488639 0.35646054 4281827000
0.16298436 0.69178599 0.33936751 4281827000
0.2103584 0.7366575 0.34926262 4281827000
0.19753443 0.72298753 0.3531484 4281827000
0.15940866 0.68940377 0.33839363 4281827000
0.18607435 0.7079156 0.35370827 4281827000
0.20369639 0.72805148 0.35253388 4281827000
0.22682631 0.7552644 0.35787761 4281827000
0.22773926 0.76629949 0.36200714 4281827000
0.23426314 0.77384341 0.3669003 4281827000
0.2379729 0.77877158 0.3694407 4281827000
0.21437153 0.79120523 0.29661211 4294967091
0.2432262 0.85792333 0.36229277 4293138972
0.16793679 0.69559592 0.34265262 4281827000
0.15672459 0.73352271 0.26715428 4294967091
0.27430779 0.79766428 0.27486575 4294967091
0.23607898 0.77170789 0.36631316 4281827000
0.18842372 0.70863527 0.35445243 4281827000
0.23803161 0.79915565 0.37853998 4293138972
0.22006465 0.7468276 0.35196111 4281827000
0.22129843 0.74841958 0.35300589 4281827000
0.15054697 0.68824732 0.32751933 4281827000
0.24137619 0.80072379 0.37924266 4293138972
0.22445901 0.753425 0.35603985 4281827000
0.18114914 0.70051271 0.3492327 4281827000
0.24140587 0.8051607 0.38074452 4293138972
0.24350376 0.80712748 0.38189667 4293138972
0.20441096 0.73010826 0.3516857 4281827000
0.15716644 0.73143995 0.26930422 4294967091
0.20622751 0.72994518 0.35260648 4281827000
0.21882127 0.74399227 0.35183108 4281827000
0.21270333 0.73743057 0.35068887 4281827000
0.23898299 0.77676684 0.36971322 4281827000
0.15036373 0.7148717 0.28682372 4294967091
0.23157142 0.80992508 0.26083332 4294967091
0.23810446 0.79633808 0.37791064 4293138972
0.23704775 0.77526385 0.3680523 4281827000
0.17849661 0.69737458 0.34569481 4281827000
0.23958619 0.77457118 0.36875823 4281827000
0.22669238 0.76344383 0.36047497 4281827000
0.22675504 0.76068658 0.35947326 4281827000
0.22905913 0.76237267 0.36096451 4281827000
0.28638247 0.80493474 0.26131579 4281827000
0.22118656 0.75219983 0.35538802 4281827000
0.19045424 0.71827316 0.35313979 4281827000
0.22696391 0.80611372 0.26713935 4294967091
0.23351544 0.76555926 0.36303279 4281827000
0.22933218 0.76902401 0.36354437 4281827000
0.23254448 0.7677449 0.36340261 4281827000
0.24318919 0.85692364 0.36578628 4293138972
0.17859179 0.69439203 0.34425384 4281827000
0.1462802 0.68573266 0.32243162 4281827000
0.15186222 0.71513885 0.29141134 4294967091
0.14996061 0.72010642 0.28087059 4294967091
0.14591789 0.68920064 0.32800251 4281827000
0.18067865 0.69909847 0.34686893 4281827000
0.14591089 0.68913716 0.33213747 4281827000
0.15993276 0.73891371 0.31602228 4281827000
0.15182842 0.7338782 0.29612982 4294967091
0.19051771 0.70955145 0.35427764 4281827000
0.15658288 0.73563421 0.29590443 4294967091
0.23476011 0.76852053 0.36524493 4281827000
0.22622283 0.81117052 0.32167026 4293138972
0.22408606 0.80877411 0.32668176 4293138972
0.22451372 0.80884176 0.32982236 4293138972
0.23625818 0.76657248 0.36514744 4281827000
0.17305818 0.698259 0.34456202 4281827000
0.24391541 0.78029138 0.37278575 4281827000
0.22846116 0.75800002 0.35901368 4281827000
0.23114124 0.76443607 0.36193845 4281827000
0.23519979 0.76431507 0.36296499 4281827000
0.16910562 0.69222325 0.34106144 4281827000
0.23076563 0.75594026 0.35811609 4281827000
0.23048821 0.7600491 0.360129 4281827000
0.2329334 0.76205587 0.3614493 4281827000
0.22422154 0.74931872 0.35418364 4281827000
0.22689682 0.75281501 0.35610226 4281827000
0.17438929 0.69567978 0.34379539 4281827000
0.17409295 0.69041872 0.34109142 4281827000
0.1764558 0.69351709 0.34339714 4281827000
0.17193164 0.69186264 0.34146208 4281827000
0.17351934 0.69320703 0.34237078 4281827000
0.22056691 0.74244434 0.35059732 4281827000
0.14561972 0.68995762 0.32483223 4281827000
0.18299767 0.70341676 0.35197505 4281827000
0.18533538 0.70496529 0.35309333 4281827000
0.15850727 0.68830514 0.33563927 4281827000
0.22276795 0.74600875 0.35290465 4281827000
0.22114688 0.80732751 0.33223808 4293138972
0.18476984 0.70060498 0.35214669 4281827000
0.20900409 0.73033726 0.35232285 4281827000
0.22967535 0.75301957 0.35662755 4281827000
0.18257968 0.70024568 0.35058942 4281827000
0.18179606 0.6982094 0.34806114 4281827000
0.22490034 0.7469939 0.35405469 4281827000
0.18179424 0.69599074 0.34664056 4281827000
0.25722197 0.81025451 0.39187735 4293138972
0.16811541 0.68954897 0.33918631 4281827000
0.16506201 0.69017273 0.33848169 4281827000
0.2345513 0.80803549 0.26603794 4294967091
0.16133942 0.68904126 0.33825454 4281827000
0.24579367 0.78956294 0.38280258 4293138972
0.18069158 0.69518155 0.34506735 4281827000
0.17583124 0.65117699 0.26309797 4294967091
0.17212813 0.65399843 0.26732442 4294967091
0.17548628 0.65681779 0.27040187 4294967091
0.17251153 0.65800488 0.26480144 4294967091
0.17148267 0.65378064 0.26421684 4294967091
0.14518648 0.69296151 0.33261901 4281827000
0.16780365 0.66199827 0.27937934 4294967091
0.17132695 0.66133976 0.27892131 4294967091
0.16026154 0.65758944 0.27615353 4294967091
0.17435704 0.65533978 0.27007186 4294967091
0.27057627 0.83706069 0.39081958 4293138972
0.17968921 0.69247335 0.34156063 4281827000
0.16610633 0.68760765 0.33690649 4281827000
0.17116223 0.68977797 0.33977297 4281827000
0.16854131 0.68663555 0.33705071 4281827000
0.17451626 0.68606859 0.33890194 4281827000
0.15944813 0.68676329 0.33655208 4281827000
0.16294917 0.6872164 0.33635253 4281827000
0.17638439 0.6912728 0.34220001 4281827000
0.1730576 0.68808877 0.33931133 4281827000
0.15742503 0.68703896 0.33427373 4281827000
0.18613304 0.70287323 0.35253695 4281827000
0.1534119 0.68555731 0.33298045 4281827000
0.17077066 0.68738586 0.3378599 4281827000
0.17693675 0.68993497 0.34058064 4281827000
0.254419 0.80901623 0.38889226 4293138972
0.20742419 0.77475077 0.34876561 4281827000
0.24602138 0.82833809 0.38770345 4293138972
0.24325612 0.84820676 0.38313261 4293138972
0.24231403 0.80987906 0.38056988 4293138972
0.24376361 0.84581673 0.3838107 4293138972
0.15107639 0.72889739 0.32934338 4281827000
0.24544415 0.82376003 0.38792256 4293138972
0.21050024 0.78368932 0.26103696 4294967091
0.15875308 0.65626472 0.27592239 4294967091
0.18304791 0.70445359 0.34893396 4281827000
0.24648148 0.8474443 0.38489363 4293138972
0.14853764 0.68932432 0.33042771 4281827000
0.20141993 0.78440398 0.34302089 4281827000
0.18202992 0.70491689 0.34628248 4281827000
0.13767496 0.73226058 0.26218581 4294967091
0.2434022 0.84306014 0.38476843 4293138972
0.13570271 0.71719968 0.27885449 4294967091
0.23932669 0.85458094 0.38029909 4293138972
0.14994416 0.7266708 0.33177465 4281827000
0.19879134 0.79081166 0.32873455 4281827000
0.14009783 0.68017727 0.31757149 4281827000
0.24223623 0.8507064 0.38195351 4293138972
0.1615591 0.66560626 0.28877544 4294967091
0.13790856 0.72579044 0.29590371 4294967091
0.1473345 0.7309218 0.26621297 4294967091
0.14401393 0.73232198 0.32093072 4294967091
0.24433796 0.82042772 0.38499874 4293138972
0.2433777 0.82966745 0.3856895 4293138972
0.1854634 0.66379046 0.26018909 4294967091
0.14288688 0.69051713 0.33085093 4281827000
0.22093172 0.81466198 0.36156142 4293138972
0.13494574 0.72104907 0.27433288 4294967091
0.14099897 0.69221801 0.32786307 4281827000
0.14306188 0.70722157 0.32755351 4281827000
0.14122994 0.68778318 0.32576641 4281827000
0.141653 0.73967314 0.2616789 4294967091
0.186288 0.66062647 0.26033175 4294967091
0.14185297 0.68942857 0.32161853 4281827000
0.23237383 0.79363495 0.37236443 4293138972
0.14075597 0.69700253 0.32881412 4281827000
0.13991554 0.71716303 0.29666713 4294967091
0.19198835 0.77810287 0.32680264 4281827000
0.13674054 0.73055792 0.27074757 4294967091
0.13745426 0.73540515 0.2625505 4294967091
0.14188881 0.68526256 0.32439175 4281827000
0.13561223 0.72582376 0.29337889 4294967091
0.14277257 0.693452 0.33177802 4281827000
0.24421786 0.81819147 0.38263094 4293138972
0.14197363 0.69488156 0.32959625 4281827000
0.13962653 0.69628704 0.32524741 4281827000
0.1423787 0.70156407 0.32936639 4281827000
0.17284273 0.74841219 0.32067531 4281827000
0.19087584 0.77263564 0.32003906 4281827000
0.19036897 0.77486479 0.3213253 4281827000
0.19560049 0.77729243 0.32128122 4281827000
0.13843186 0.72981691 0.2704339 4294967091
0.2407182 0.80345404 0.37830237 4293138972
0.13915852 0.69195575 0.32429886 4281827000
0.14770798 0.73513299 0.32579413 4281827000
0.14251511 0.70481253 0.328951 4281827000
0.22043747 0.80727774 0.34485102 4293138972
0.14249884 0.71828759 0.30932739 4294967091
0.14296365 0.6843555 0.32233796 4281827000
0.14282559 0.70857382 0.3236939 4281827000
0.14371227 0.69046324 0.32706636 4281827000
0.13718204 0.72980654 0.28041622 4294967091
0.24254669 0.83289355 0.38562638 4293138972
0.14077641 0.69017994 0.32537347 4281827000
0.21850266 0.80692416 0.34969971 4293138972
0.24519323 0.82140756 0.38648149 4293138972
0.13981478 0.68581641 0.32067847 4281827000
0.14300501 0.73687667 0.26364568 4294967091
0.14456835 0.71693206 0.31289878 4281827000
0.19088876 0.7740767 0.32355082 4281827000
0.13912861 0.68374258 0.31707478 4281827000
0.13539511 0.72631627 0.28722382 4294967091
0.14497262 0.68622094 0.32993072 4281827000
0.21840388 0.80793643 0.35375741 4293138972
0.21904081 0.81228894 0.35870218 4293138972
0.21744037 0.81095457 0.35595718 4293138972
0.21571392 0.81389773 0.35971212 4293138972
0.17110282 0.74900049 0.31814051 4281827000
0.17969009 0.75977516 0.31576774 4281827000
0.13895528 0.7282474 0.26226717 4294967091
0.13783716 0.68676639 0.31705853 4281827000
0.19314486 0.78080833 0.32746574 4281827000
0.18367228 0.76809275 0.32207301 4281827000
0.19810021 0.7983641 0.32587877 4281827000
0.13532256 0.72664171 0.27734619 4294967091
0.13734116 0.66807884 0.26160946 4281827000
0.15608594 0.73019391 0.33134472 4281827000
0.14047576 0.69924343 0.3293753 4281827000
0.1427805 0.7043401 0.31981897 4281827000
0.14148258 0.70733935 0.3204703 4281827000
0.18488957 0.76567262 0.31959701 4281827000
0.2039509 0.75659013 0.34944555 4281827000
0.13782507 0.68804085 0.32107046 4281827000
0.14548534 0.7083928 0.31914455 4281827000
0.14431608 0.70856941 0.32225356 4281827000
0.19521241 0.77881432 0.32805356 4281827000
0.14237143 0.7156533 0.30703232 4294967091
0.23847093 0.79670602 0.3742902 4293138972
0.13450336 0.72762412 0.28350544 4294967091
0.24444143 0.82688367 0.38549486 4293138972
0.13432272 0.72502929 0.27654526 4294967091
0.19096421 0.76793414 0.3105967 4281827000
0.18325685 0.7751078 0.32849339 4281827000
0.18530826 0.7781744 0.32845545 4281827000
0.15971602 0.74138439 0.32308376 4281827000
0.1374968 0.71315104 0.29447663 4294967091
0.13892247 0.72915643 0.30819464 4294967091
0.14097634 0.7009576 0.32658228 4281827000
0.19719835 0.77556807 0.3066422 4281827000
0.1380773 0.72545964 0.26457056 4294967091
0.21390307 0.82705814 0.35924563 4293138972
0.19673146 0.78813297 0.32560641 4281827000
0.24694407 0.84176981 0.38616267 4293138972
0.13773896 0.696778 0.32318667 4281827000
0.14212987 0.70244706 0.31925845 4281827000
0.19762842 0.74691814 0.34464344 4281827000
0.19658816 0.78300631 0.32668781 4281827000
0.24806686 0.82331389 0.38751984 4293138972
0.14233835 0.68678832 0.32680127 4281827000
0.15757255 0.73416162 0.32616872 4281827000
0.1471626 0.73807502 0.32748097 4281827000
0.16058356 0.68424743 0.33500782 4281827000
0.17645681 0.75582963 0.31542417 4281827000
0.24362268 0.82406598 0.38480997 4293138972
0.13817522 0.69229949 0.32077429 4281827000
0.14130843 0.69650918 0.32128888 4281827000
0.19758716 0.78524363 0.32751763 4281827000
0.19272409 0.78155184 0.32320794 4281827000
0.19392426 0.7714861 0.31040558 4281827000
0.20866422 0.75065428 0.34756723 4281827000
0.24146947 0.8531788 0.38024443 4293138972
0.20142514 0.77943778 0.30774787 4281827000
0.14009619 0.68230069 0.3206535 4281827000
0.21611018 0.82317287 0.35721734 4293138972
0.14256477 0.69682491 0.32461002 4281827000
0.13835032 0.73215353 0.31484574 4294967091
0.23886503 0.7931329 0.37517446 4293138972
0.21756372 0.82045567 0.35434204 4293138972
0.21522422 0.82420677 0.35390511 4293138972
0.24044383 0.84605867 0.38149321 4293138972
0.18861789 0.72327662 0.34919697 4281827000
0.24171239 0.84398729 0.38205856 4293138972
0.19811399 0.78777605 0.31899971 4281827000
0.19641557 0.79563814 0.32327592 4281827000
0.17582496 0.75487447 0.31233594 4281827000
0.21570691 0.81356257 0.3535898 4293138972
0.15705621 0.70863557 0.33639279 4281827000
0.13949999 0.69227505 0.31556973 4281827000
0.21971419 0.80797851 0.35595462 4293138972
0.20262684 0.78912455 0.33260927 4281827000
0.19048852 0.7673763 0.32222891 4281827000
0.14338529 0.70232022 0.32158509 4281827000
0.21748905 0.81486511 0.36193016 4293138972
0.14048903 0.69745487 0.31737155 4281827000
0.19531898 0.78751504 0.31104651 4281827000
0.23594993 0.80040854 0.37743375 4293138972
0.14873324 0.69239426 0.33401477 4281827000
0.1464522 0.6870355 0.32625139 4281827000
0.24599998 0.81332827 0.37890664 4293138972
0.21020862 0.7720446 0.35825616 4281827000
0.15896554 0.68380857 0.33387244 4281827000
0.24242237 0.8407796 0.38358256 4293138972
0.14207229 0.68683892 0.32159927 4281827000
0.14152999 0.69191647 0.32004949 4281827000
0.16167188 0.65383917 0.26872417 4294967091
0.14102624 0.67974448 0.32119286 4281827000
0.20552202 0.77472854 0.34938064 4281827000
0.24510527 0.81784427 0.37775525 4293138972
0.15616639 0.68468362 0.33213228 4281827000
0.16724633 0.71195698 0.34479722 4281827000
0.17078885 0.7139588 0.3460637 4281827000
0.15269762 0.6823588 0.32981521 4281827000
0.15565321 0.68166453 0.33045524 4281827000
0.15013011 0.68057239 0.32801414 4281827000
0.13968344 0.67679864 0.31521949 4281827000
0.16735527 0.68540537 0.3360419 4281827000
0.16466039 0.68472397 0.33533961 4281827000
0.16139212 0.68196362 0.33263019 4281827000
0.16330352 0.6623385 0.28203753 4294967091
0.14566259 0.68017781 0.3198545 4281827000
0.15509474 0.6804561 0.32920611 4281827000
0.1576774 0.66190553 0.28247008 4294967091
0.13762629 0.67835277 0.31307098 4281827000
0.16234492 0.68325448 0.33421135 4281827000
0.15792434 0.6823414 0.3322542 4281827000
0.1377131 0.67613333 0.31267759 4281827000
0.16915581 0.68390632 0.33527634 4281827000
0.15951127 0.68104863 0.33128601 4281827000
0.15763699 0.67999518 0.32989433 4281827000
0.13835613 0.69930333 0.3185747 4281827000
0.21723932 0.73599625 0.34339988 4281827000
0.20309237 0.74033964 0.34585309 4281827000
0.14037693 0.7005477 0.32496941 4281827000
0.23029435 0.78710556 0.36376566 4281827000
0.20972387 0.74296468 0.34704921 4281827000
0.13414989 0.67436928 0.30911291 4281827000
0.14038953 0.71207964 0.29540852 4294967091
0.14356768 0.71426326 0.30000189 4294967091
0.14776772 0.68406558 0.32606977 4281827000
0.1451994 0.71323556 0.30497792 4294967091
0.24624883 0.82782185 0.37841332 4293138972
0.24137521 0.77305979 0.3641277 4281827000
0.13963814 0.70163083 0.32717264 4281827000
0.14889087 0.68129647 0.32502913 4281827000
0.14273779 0.71228385 0.29541788 4294967091
0.14043099 0.71194893 0.29297367 4294967091
0.18288444 0.70975459 0.34649277 4281827000
0.20056517 0.74459285 0.34206384 4281827000
0.14462285 0.70945972 0.3142553 4281827000
0.24171713 0.77086461 0.36303914 4281827000
0.17548007 0.7083509 0.34486717 4281827000
0.1855747 0.71984172 0.3471368 4281827000
0.13815898 0.69406855 0.31643558 4281827000
0.16241181 0.69286907 0.34047419 4281827000
0.14535557 0.68225294 0.32501277 4281827000
0.13802759 0.7087726 0.29094067 4294967091
0.24484369 0.78424406 0.37044626 4281827000
0.20884956 0.76057005 0.34613845 4281827000
0.19803692 0.73826891 0.34290323 4281827000
0.15303488 0.67976016 0.3265132 4281827000
0.14164609 0.70358664 0.30947462 4281827000
0.24459803 0.83455402 0.37884769 4293138972
0.14077285 0.70016438 0.31205049 4281827000
0.14463368 0.71063972 0.30621284 4294967091
0.24857111 0.82502919 0.37640807 4293138972
0.21495907 0.76027179 0.35625935 4281827000
0.16361761 0.72780311 0.33367795 4281827000
0.15286337 0.66459 0.28910926 4281827000
0.18698856 0.7347576 0.34052053 4281827000
0.16909306 0.70425647 0.34156093 4281827000
0.16149893 0.66126001 0.27192971 4294967091
0.14041755 0.70340818 0.31705415 4281827000
0.14311589 0.70711803 0.30801779 4281827000
0.1919798 0.73606235 0.34081006 4281827000
0.141027 0.70812368 0.29333112 4294967091
0.13965121 0.72443032 0.26128396 4294967091
0.18499967 0.72100377 0.34467593 4281827000
0.1641923 0.70061255 0.34179181 4281827000
0.15214038 0.69094533 0.33480567 4281827000
0.15816113 0.66509265 0.28084442 4294967091
0.17510699 0.70973176 0.34460482 4281827000
0.17129447 0.70198387 0.34353811 4281827000
0.15698174 0.68990099 0.33823907 4281827000
0.14924477 0.68639481 0.32892954 4281827000
0.1355107 0.70978451 0.28297308 4294967091
0.19883649 0.74728584 0.34479526 4281827000
0.19418913 0.74818778 0.33750975 4281827000
0.17807077 0.71889436 0.34419593 4281827000
0.20960227 0.79668838 0.26388165 4294967091
0.13808276 0.68290776 0.31380048 4281827000
0.19928069 0.74292201 0.34159175 4281827000
0.14717251 0.68034524 0.32309428 4281827000
0.13431779 0.71211594 0.28124878 4294967091
0.13609779 0.71661335 0.27964416 4294967091
0.13196018 0.71284336 0.27784935 4294967091
0.1599495 0.69651073 0.34054881 4281827000
0.15914069 0.65267807 0.26645926 4294967091
0.24692702 0.83198416 0.37658608 4293138972
0.14083563 0.67917567 0.31861794 4281827000
0.2084787 0.74614006 0.34782538 4281827000
0.19279158 0.73045254 0.3428736 4281827000
0.18071941 0.72080976 0.34536907 4281827000
0.18523555 0.76230818 0.31802818 4281827000
0.1498147 0.67918885 0.3262094 4281827000
0.15460713 0.66327637 0.27946445 4294967091
0.161586 0.65932143 0.2634432 4294967091
0.22043949 0.7809667 0.36193931 4281827000
0.21513484 0.76032978 0.35392952 4281827000
0.21614669 0.75359887 0.34954241 4281827000
0.20518903 0.75595784 0.34383047 4281827000
0.20006564 0.75207955 0.33996782 4281827000
0.18820597 0.73122269 0.34268898 4281827000
0.16694248 0.69829708 0.3409166 4281827000
0.15805174 0.69945008 0.34153137 4281827000
0.1565408 0.67736959 0.32692116 4281827000
0.14224425 0.67797285 0.31086391 4281827000
0.2109199 0.76539463 0.35081241 4281827000
0.1649092 0.6978057 0.3424322 4281827000
0.15775213 0.69737083 0.34095046 4281827000
0.15591601 0.65523237 0.27186772 4294967091
0.19070724 0.73532176 0.3397381 4281827000
0.23741728 0.78833067 0.3674227 4293138972
0.18884639 0.72754347 0.34449998 4281827000
0.16130553 0.70463461 0.34194627 4281827000
0.14123659 0.6996569 0.30747315 4281827000
0.13659804 0.67989224 0.31031093 4281827000
0.14404 0.70949852 0.29846451 4294967091
0.14442682 0.71237892 0.29984033 4294967091
0.14380944 0.71182334 0.29718611 4294967091
0.24747711 0.8452788 0.37205988 4293138972
0.23194529 0.79766536 0.37314191 4293138972
0.22320166 0.76846093 0.35755152 4281827000
0.19692957 0.74076945 0.34112355 4281827000
0.13867958 0.6806125 0.30740288 4281827000
0.15242864 0.69522327 0.33654803 4281827000
0.15553327 0.70058388 0.33437937 4281827000
0.14379528 0.70717633 0.29840767 4294967091
0.13946864 0.71136743 0.28365421 4294967091
0.2209487 0.77899837 0.35574356 4281827000
0.19390479 0.73993617 0.34015739 4281827000
0.15693416 0.70025373 0.34146357 4281827000
0.19717649 0.75106895 0.34583607 4281827000
0.15169056 0.69252092 0.3369022 4281827000
0.13763584 0.71052361 0.29201052 4294967091
0.13835797 0.70842308 0.28655291 4294967091
0.13632137 0.70778483 0.28296205 4294967091
0.24348436 0.81654435 0.37484291 4293138972
0.19555648 0.7491492 0.34546581 4281827000
0.1553943 0.69338709 0.33843634 4281827000
0.15502129 0.69368494 0.33449128 4281827000
0.14662427 0.70440346 0.33074787 4281827000
0.23570137 0.8030225 0.37725928 4293138972
0.15580282 0.68952584 0.33698758 4281827000
0.20731042 0.78293031 0.26076818 4294967091
0.17720984 0.75260735 0.30737254 4281827000
0.160808 0.70816195 0.33962184 4281827000
0.15616959 0.69939667 0.3357704 4281827000
0.14554068 0.69124341 0.33175623 4281827000
0.24431613 0.8109951 0.37513945 4293138972
0.20732148 0.76477444 0.3464981 4281827000
0.20814709 0.77281845 0.34437183 4281827000
0.18318038 0.7594896 0.31841415 4281827000
0.2418963 0.78678805 0.36928785 4293138972
0.21739976 0.77356762 0.36177599 4281827000
0.13959661 0.71826148 0.28688326 4294967091
0.24088635 0.78175724 0.36728081 4281827000
0.22186525 0.79822719 0.35978559 4293138972
0.21690035 0.80975139 0.34946272 4293138972
0.21411334 0.74489909 0.34721267 4281827000
0.19893719 0.75909215 0.3367731 4281827000
0.20245463 0.77727717 0.31623939 4281827000
0.15428738 0.68823552 0.33452919 4281827000
0.13913701 0.70964515 0.29277176 4294967091
0.15514706 0.71379834 0.34039146 4281827000
0.13888504 0.70711738 0.2896626 4294967091
0.14007115 0.70794159 0.282929 4294967091
0.13603954 0.71556079 0.26878706 4294967091
0.24736752 0.82299292 0.37447044 4293138972
0.2199569 0.81929821 0.34684503 4293138972
0.20660008 0.77652472 0.34635201 4281827000
0.19408248 0.77106595 0.33875635 4281827000
0.1640951 0.70665544 0.33806917 4281827000
0.14510328 0.68579948 0.32483312 4281827000
0.16540314 0.70962697 0.34319633 4281827000
0.20588584 0.78523916 0.28264704 4294967091
0.14025512 0.68388212 0.31361455 4281827000
0.14376304 0.70503575 0.30009228 4294967091
0.20124818 0.74158448 0.34143287 4281827000
0.14938986 0.69047135 0.33287823 4281827000
0.20714076 0.76331103 0.35350123 4281827000
0.20236312 0.75035566 0.34824651 4281827000
0.20636123 0.79281175 0.27198893 4294967091
0.14084549 0.69750744 0.30576292 4281827000
0.21955718 0.75900072 0.35396624 4281827000
0.21318308 0.75525635 0.35441309 4281827000
0.20403399 0.76074237 0.3429006 4281827000
0.19592215 0.76626837 0.34073311 4281827000
0.20246452 0.77525747 0.31744283 4281827000
0.20616728 0.78924519 0.29283643 4294967091
0.16212219 0.6999172 0.33861664 4281827000
0.15964089 0.6987558 0.34223402 4281827000
0.15665975 0.6940853 0.33887097 4281827000
0.14427185 0.70831591 0.30319694 4294967091
0.1443267 0.71014124 0.30101335 4294967091
0.20374191 0.78861564 0.30877584 4281827000
0.17378165 0.72045875 0.34369364 4281827000
0.167133 0.71395236 0.34584555 4281827000
0.18239266 0.75764364 0.31603515 4281827000
0.14869447 0.68596488 0.33317932 4281827000
0.16190821 0.65705085 0.26260307 4294967091
0.20199548 0.74348044 0.3445991 4281827000
0.20359372 0.78452933 0.32427898 4281827000
0.14392321 0.7036463 0.29889116 4294967091
0.14288373 0.67810631 0.31440032 4281827000
0.13951725 0.69090611 0.31187096 4281827000
0.24814163 0.79737449 0.3741639 4293138972
0.16104364 0.69209999 0.33684808 4281827000
0.15756024 0.70329046 0.34145895 4281827000
0.14126591 0.6804378 0.311607 4281827000
0.13869111 0.693268 0.31021875 4281827000
0.14309348 0.70784956 0.29390228 4294967091
0.17038685 0.70889574 0.34591603 4281827000
0.20638853 0.78609914 0.29046968 4294967091
0.14419685 0.70559365 0.30188218 4294967091
0.22764423 0.79306626 0.36843604 4293138972
0.22682486 0.75654835 0.35547605 4281827000
0.14326899 0.68833977 0.33133581 4281827000
0.13724184 0.72028553 0.26455995 4294967091
0.22859038 0.78376806 0.36689237 4281827000
0.21828121 0.77569902 0.35471976 4281827000
0.13789147 0.68161523 0.31203318 4281827000
0.24297845 0.81021148 0.37394106 4293138972
0.2227769 0.7966553 0.36458415 4293138972
0.15368943 0.69462842 0.33944675 4281827000
0.13895945 0.68096542 0.31435838 4281827000
0.24929661 0.84270191 0.37005368 4293138972
0.14350386 0.71061444 0.29456851 4294967091
0.20698664 0.74236912 0.34399596 4281827000
0.14108138 0.68992519 0.3092517 4281827000
0.24827932 0.80547857 0.37575847 4293138972
0.24620312 0.82828128 0.37317133 4293138972
0.24583276 0.81518358 0.37478599 4293138972
0.22825177 0.79212469 0.37025091 4293138972
0.22242525 0.79618716 0.36000729 4293138972
0.18220316 0.72354281 0.34219334 4281827000
0.16951357 0.71999562 0.339858 4281827000
0.15161085 0.70895398 0.33620054 4281827000
0.22612217 0.7901656 0.35831425 4281827000
0.21959999 0.78169519 0.35617435 4281827000
0.21726157 0.7772119 0.35501128 4281827000
0.21137714 0.77759057 0.35395995 4281827000
0.15120931 0.714885 0.33711347 4281827000
0.15232196 0.7043916 0.33090952 4281827000
0.14536326 0.70458823 0.33465126 4281827000
0.14380172 0.70354342 0.30398002 4294967091
0.22129662 0.81181759 0.36039832 4293138972
0.22467913 0.78331345 0.35839406 4281827000
0.15430102 0.67762625 0.32576013 4281827000
0.15008442 0.67760193 0.32274961 4281827000
0.14760381 0.67862082 0.32179275 4281827000
0.14564769 0.67850786 0.31934944 4281827000
0.15539278 0.65740806 0.27468231 4294967091
0.22450949 0.78219092 0.35675529 4281827000
0.21377504 0.74795794 0.34661379 4281827000
0.20760387 0.76905084 0.34106913 4281827000
0.16605684 0.7198137 0.33720502 4281827000
0.22968751 0.82592183 0.36097381 4293138972
0.2141851 0.76641268 0.35907206 4281827000
0.21980028 0.80954194 0.34750524 4293138972
0.22028755 0.81303525 0.34339789 4293138972
0.20477736 0.73507339 0.34098992 4281827000
0.13646439 0.67693895 0.31205112 4281827000
0.21432665 0.76960182 0.35224447 4281827000
0.20277356 0.76224911 0.33819166 4281827000
0.20762321 0.78931367 0.29832602 4294967091
0.1641921 0.72195387 0.34227088 4281827000
0.24208967 0.81352478 0.37356099 4293138972
0.20859233 0.78157097 0.3429521 4281827000
0.15975921 0.66082186 0.27891558 4294967091
0.14024551 0.70608598 0.28288016 4294967091
0.23146462 0.79503018 0.37288377 4293138972
0.22380421 0.81685001 0.36559078 4293138972
0.22375856 0.78272897 0.36187309 4281827000
0.14569265 0.71557301 0.30639303 4294967091
0.13793179 0.70788473 0.28284115 4294967091
0.1353492 0.71038222 0.27975991 4294967091
0.24677403 0.82598609 0.37333515 4293138972
0.22575635 0.78796351 0.35724631 4281827000
0.2063076 0.78483719 0.27738565 4294967091
0.14072201 0.6872924 0.30886191 4281827000
0.13975404 0.7066896 0.28689897 4294967091
0.13709588 0.70885497 0.27790913 4294967091
0.2292968 0.82743418 0.36405894 4293138972
0.22639742 0.79757988 0.35815474 4293138972
0.22155613 0.81125802 0.34135592 4293138972
0.20189087 0.76916671 0.2928229 4281827000
0.22366132 0.77990031 0.36384439 4281827000
0.16467455 0.70792574 0.34307766 4281827000
0.14627782 0.7121591 0.31164977 4281827000
0.16952996 0.72928309 0.33316311 4281827000
0.16350846 0.72747779 0.33035946 4281827000
0.1621747 0.67976141 0.33103788 4281827000
0.13847108 0.68872958 0.31508419 4281827000
0.22410603 0.79296237 0.36318099 4293138972
0.15253596 0.67641449 0.32362282 4281827000
0.14062107 0.70582342 0.28450149 4294967091
0.13735802 0.71560144 0.27455127 4294967091
0.13811871 0.71540946 0.26551107 4294967091
0.2046404 0.75965941 0.34291425 4281827000
0.15480421 0.67606241 0.32474583 4281827000
0.15158758 0.67525691 0.32197767 4281827000
0.14229426 0.70714664 0.28965417 4294967091
0.14164048 0.70426029 0.28592256 4294967091
0.24030125 0.8142404 0.37247148 4293138972
0.23510185 0.8060745 0.37135711 4293138972
0.21781692 0.77830815 0.36089781 4281827000
0.2242436 0.80471814 0.34245628 4293138972
0.21011752 0.77328831 0.34600291 4281827000
0.20726596 0.76731932 0.34242803 4281827000
0.13861625 0.68101335 0.31737205 4281827000
0.13862972 0.71870416 0.26162976 4294967091
0.22310108 0.74144852 0.34489825 4281827000
0.16129068 0.71186286 0.34266821 4281827000
0.13996294 0.67624885 0.30884928 4281827000
0.24727723 0.83406454 0.37054083 4293138972
0.13758671 0.67653167 0.30837682 4281827000
0.23824038 0.80652714 0.37253854 4293138972
0.20339401 0.74194771 0.34307438 4281827000
0.14152351 0.67767543 0.31871939 4281827000
0.14282121 0.67661643 0.31269065 4281827000
0.13927971 0.67429161 0.30859232 4281827000
0.21842752 0.80298126 0.35302928 4293138972
0.14630792 0.70767182 0.33443829 4281827000
0.14246154 0.70520961 0.28948474 4294967091
0.2592276 0.80347872 0.37607059 4293138972
0.23236781 0.79986864 0.37449428 4293138972
0.22535893 0.78492272 0.36482346 4281827000
0.22398548 0.75084752 0.35121846 4281827000
0.21200609 0.75666642 0.35434118 4281827000
0.14428248 0.7081899 0.31014726 4281827000
0.13804549 0.69312328 0.31287634 4281827000
0.14183521 0.70571518 0.29341492 4294967091
0.13729364 0.67484188 0.30718958 4281827000
0.15843537 0.65377891 0.27378798 4294967091
0.13867056 0.70820504 0.27953815 4294967091
0.22144166 0.8008545 0.36359245 4293138972
0.20576154 0.78474313 0.28692061 4294967091
0.13842085 0.69570923 0.31352857 4281827000
0.13848813 0.71128988 0.274064 4294967091
0.25027251 0.80131155 0.37484095 4293138972
0.2347603 0.80429792 0.37126783 4293138972
0.23583168 0.8306995 0.36436129 4293138972
0.22530545 0.78743625 0.36645013 4281827000
0.14658327 0.67710817 0.31961879 4281827000
0.14412668 0.70107156 0.29333839 4294967091
0.14327629 0.70416671 0.29257172 4294967091
0.21595608 0.78219342 0.34814125 4281827000
0.16057746 0.71687871 0.33473521 4281827000
0.14950967 0.71345192 0.33462518 4281827000
0.14237596 0.68252152 0.32061642 4281827000
0.1378416 0.71332055 0.26994607 4294967091
0.12617877 0.65958667 0.26773691 4281827000
0.24002272 0.80592054 0.37415555 4293138972
0.13852622 0.69698554 0.3184365 4281827000
0.14270832 0.70372158 0.28782815 4294967091
0.13248932 0.66201115 0.28248304 4281827000
0.2590856 0.8017602 0.37452486 4293138972
0.25359824 0.79965109 0.3743428 4293138972
0.24469164 0.80292267 0.37476459 4293138972
0.24595346 0.79306829 0.37245819 4293138972
0.2319777 0.7981264 0.37465063 4293138972
0.20209783 0.75733131 0.34366614 4281827000
0.1578286 0.67448425 0.3242543 4281827000
0.24276745 0.79638648 0.3749944 4293138972
0.23715158 0.84770691 0.36337316 4293138972
0.2462623 0.7948637 0.37327239 4293138972
0.20682767 0.78387862 0.28004867 4294967091
0.15876018 0.67805058 0.3286128 4281827000
0.23615564 0.79792315 0.37569615 4293138972
0.22017553 0.80544025 0.356226 4293138972
0.21585438 0.7438187 0.34599581 4281827000
0.19409913 0.72951502 0.34125301 4281827000
0.20823263 0.78725207 0.29958528 4294967091
0.15879951 0.7025699 0.33812916 4281827000
0.14322546 0.70503342 0.3101429 4281827000
0.144784 0.68201363 0.32171509 4281827000
0.16410351 0.65955549 0.27480632 4294967091
0.23764774 0.81109679 0.37229115 4293138972
0.15155965 0.69177294 0.33396009 4281827000
0.14319095 0.7025792 0.29007465 4294967091
0.22407809 0.80725825 0.34396595 4293138972
0.20957811 0.7724762 0.35258353 4281827000
0.20280741 0.74702185 0.34840396 4281827000
0.15819694 0.67674559 0.32787484 4281827000
0.22390614 0.8066681 0.34019127 4293138972
0.16718052 0.70327461 0.33969823 4281827000
0.19993904 0.76714057 0.29181907 4281827000
0.22949766 0.74763268 0.35074008 4281827000
0.15285495 0.69050658 0.33554605 4281827000
0.14312676 0.67678314 0.31634042 4281827000
0.13847676 0.68557185 0.31762889 4281827000
0.14441471 0.71598423 0.30044076 4294967091
0.13734499 0.71078128 0.26919398 4294967091
0.23379071 0.75211048 0.3536852 4281827000
0.22241627 0.73873168 0.34403095 4281827000
0.20700516 0.78376335 0.28960407 4294967091
0.20699106 0.78328693 0.28480935 4294967091
0.20669135 0.78230447 0.2797375 4294967091
0.16189501 0.67779821 0.32956588 4281827000
0.1590369 0.67289507 0.32464349 4281827000
0.15533675 0.67180312 0.32175478 4281827000
0.13821824 0.70684499 0.27671039 4294967091
0.20735203 0.78201872 0.28788987 4294967091
0.20790714 0.78214014 0.28211063 4294967091
0.15756138 0.70959741 0.3394703 4281827000
0.15650152 0.7043159 0.33944371 4281827000
0.15454665 0.67482984 0.32309857 4281827000
0.14414608 0.70556021 0.29492623 4294967091
0.13708428 0.71168989 0.26691219 4294967091
0.24151959 0.7625578 0.35895351 4281827000
0.23857266 0.75951409 0.35805747 4281827000
0.21886858 0.74011225 0.34526813 4281827000
0.20929649 0.78676736 0.29575017 4294967091
0.20804372 0.78191626 0.27686194 4294967091
0.20875651 0.78068191 0.27392644 4294967091
0.16454715 0.68232906 0.3338713 4281827000
0.15307935 0.70078337 0.33748034 4281827000
0.15871648 0.67481661 0.32620978 4281827000
0.14875187 0.6766485 0.32064244 4281827000
0.14540002 0.67679077 0.31742841 4281827000
0.13809858 0.69194883 0.31555775 4281827000
0.13931292 0.67164403 0.30587322 4281827000
0.13705923 0.67064553 0.30386683 4281827000
0.14170834 0.70294213 0.28377184 4294967091
0.16453387 0.65928489 0.27724618 4294967091
0.13978906 0.70517558 0.27952254 4294967091
0.13783886 0.70467025 0.2761986 4294967091
0.15867692 0.6536715 0.27079296 4294967091
0.14402914 0.7015937 0.29763189 4294967091
0.25222993 0.82370609 0.37429842 4293138972
0.23226012 0.74997169 0.3523697 4281827000
0.15325749 0.67313212 0.32140237 4281827000
0.14366126 0.70321608 0.29449561 4294967091
0.16546048 0.65960509 0.27918872 4294967091
0.1406845 0.70393807 0.28193352 4294967091
0.19505945 0.72290778 0.34284312 4281827000
0.20804805 0.78307444 0.29156965 4294967091
0.20748757 0.78091836 0.26204589 4294967091
0.14765432 0.67532378 0.31891093 4281827000
0.1447944 0.67580366 0.31392491 4281827000
0.14242581 0.69287568 0.30420554 4281827000
0.14380579 0.70777357 0.29528207 4294967091
0.16708511 0.65853608 0.27931604 4294967091
0.20898576 0.78401428 0.29659602 4294967091
