# .PCD v0.7 - Point Cloud Data file format
VERSION 0.7
FIELDS x y z rgba
SIZE 4 4 4 4
TYPE F F F U
COUNT 1 1 1 1
WIDTH 1094
HEIGHT 1
VIEWPOINT 0 0 0 1 0 0 0
POINTS 1094
DATA ascii
0.22617283 0.8071698 0.27788106 4294967091
0.14815606 0.71752572 0.29577041 4294967091
0.14327726 0.72490174 0.28257853 4294967091
0.22085963 0.78540629 0.35739344 4281827000
0.14254645 0.72202784 0.27641737 4294967091
0.23901466 0.78402978 0.38655964 4281827000
0.18478216 0.69994783 0.33867443 4281827000
0.15682288 0.71956635 0.30527475 4294967091
0.15204163 0.71485204 0.30663216 4294967091
0.15263082 0.72039288 0.30188408 4294967091
0.15076031 0.71823019 0.29905966 4294967091
0.14958625 0.71738297 0.29627478 4294967091
0.13873339 0.72986937 0.26668838 4294967091
0.23032993 0.77706271 0.37203139 4281827000
0.18634121 0.69813204 0.33688086 4281827000
0.16220133 0.71141946 0.32061189 4281827000
0.16264944 0.71377635 0.31752887 4281827000
0.16054711 0.72139084 0.33045676 4281827000
0.16158351 0.7100367 0.32340175 4281827000
0.16353185 0.7151733 0.32025304 4281827000
0.15892678 0.73029286 0.31638476 4294967091
0.15786517 0.72019929 0.30737332 4294967091
0.18196619 0.72013056 0.35498339 4281827000
0.16188568 0.7219761 0.34351352 4281827000
0.16516705 0.71213478 0.32930472 4281827000
0.16061489 0.72205931 0.31750172 4281827000
0.22262682 0.7911517 0.3590717 4281827000
0.16735774 0.72538656 0.35056877 4281827000
0.1635412 0.71873647 0.34243289 4281827000
0.16094005 0.72273672 0.33160052 4281827000
0.13774966 0.73060948 0.26482183 4294967091
0.14096701 0.72524369 0.27560729 4294967091
0.14966738 0.71476728 0.30576792 4281827000
0.25136265 0.78506452 0.41892692 4281827000
0.1893152 0.72087562 0.35768729 4281827000
0.16438831 0.71492487 0.32381502 4281827000
0.16215588 0.71916479 0.3218222 4281827000
0.23259504 0.80153364 0.30174264 4294967091
0.22639316 0.80545038 0.27645773 4294967091
0.16480984 0.71441197 0.33980545 4281827000
0.24069528 0.75518751 0.36204121 4281827000
0.21619634 0.77265596 0.35914618 4281827000
0.23105751 0.80092251 0.29341152 4294967091
0.2302499 0.80297238 0.29087174 4294967091
0.18834631 0.70375323 0.34510788 4281827000
0.19020936 0.7023775 0.34368333 4281827000
0.16400564 0.71397507 0.32874432 4281827000
0.23491758 0.77893001 0.38034499 4281827000
0.23225643 0.77613539 0.37467778 4281827000
0.22187245 0.77868909 0.36945474 4281827000
0.18053502 0.72149807 0.35600641 4281827000
0.18736333 0.70059472 0.34125143 4281827000
0.16022208 0.72925341 0.32387885 4281827000
0.16313197 0.71753567 0.32200924 4281827000
0.14659087 0.72036904 0.28090787 4294967091
0.24178994 0.79707003 0.40309516 4281827000
0.21632382 0.78036469 0.35548267 4281827000
0.16296914 0.71445918 0.3185989 4281827000
0.16052288 0.71895534 0.30908298 4294967091
0.15877104 0.71780378 0.30771354 4294967091
0.16245475 0.71694678 0.3164354 4281827000
0.16185345 0.71764433 0.31114197 4294967091
0.24481228 0.78567374 0.4063271 4281827000
0.23155801 0.80173385 0.3081432 4294967091
0.23207772 0.8005693 0.30530354 4294967091
0.23215647 0.79974097 0.30189133 4294967091
0.1604217 0.72623098 0.32562891 4281827000
0.2483288 0.79565209 0.41235736 4281827000
0.23183934 0.802544 0.30510023 4294967091
0.18921816 0.70569384 0.34804803 4281827000
0.15727408 0.71694005 0.30356845 4294967091
0.24336639 0.7836175 0.40186635 4281827000
0.15748996 0.72708613 0.30992723 4294967091
0.2363594 0.7800374 0.38294223 4281827000
0.24359317 0.75754184 0.36421451 4281827000
0.20380394 0.77117336 0.34369817 4281827000
0.19095266 0.70326418 0.34570706 4281827000
0.18685453 0.69915265 0.33916083 4281827000
0.16762353 0.70989734 0.32269487 4281827000
0.15743387 0.71767354 0.3057166 4294967091
0.25128329 0.79337609 0.41927043 4281827000
0.24594493 0.78634101 0.40899634 4281827000
0.18893339 0.70118451 0.34280914 4281827000
0.16220617 0.71691322 0.31325117 4281827000
0.1922226 0.70062244 0.34296846 4281827000
0.16105288 0.72084212 0.32580161 4281827000
0.20290722 0.77303785 0.34259444 4281827000
0.16214858 0.71773779 0.32875797 4281827000
0.13724393 0.7281571 0.2619521 4294967091
0.24529395 0.78392982 0.40750465 4281827000
0.24280614 0.78051895 0.39919493 4281827000
0.20733139 0.77428365 0.34600306 4281827000
0.16073512 0.72598106 0.33101916 4281827000
0.25080085 0.79099417 0.41859758 4281827000
0.24958006 0.78450328 0.41720384 4281827000
0.19027586 0.69998938 0.34161174 4281827000
0.1663634 0.71936357 0.34291214 4281827000
0.1672295 0.70614439 0.33463889 4281827000
0.15109661 0.71581286 0.29943022 4294967091
0.16312706 0.71705097 0.32519031 4281827000
0.159389 0.725007 0.31670275 4294967091
0.25192621 0.78860813 0.42210063 4281827000
0.19472075 0.76462746 0.33192334 4281827000
0.16626808 0.7118156 0.32219961 4281827000
0.15604621 0.72628486 0.30618948 4294967091
0.15503941 0.72695845 0.26792058 4294967091
0.24828993 0.78531915 0.41536519 4281827000
0.22741541 0.80543894 0.27964669 4294967091
0.16349679 0.71411091 0.33123609 4281827000
0.14947768 0.7135483 0.30409038 4281827000
0.15041846 0.71625978 0.29776102 4294967091
0.16310145 0.71234256 0.33610252 4281827000
0.15912028 0.73022825 0.32857904 4281827000
0.16556367 0.71311289 0.32332149 4281827000
0.15393199 0.71622616 0.30304193 4294967091
0.15164217 0.71405452 0.30097798 4294967091
0.1506933 0.71443504 0.29728809 4294967091
0.219772 0.77756673 0.36494565 4281827000
0.16238274 0.71584791 0.33237305 4281827000
0.24680692 0.80024159 0.41631526 4281827000
0.23164421 0.78657818 0.3778671 4281827000
0.16149527 0.7187891 0.32694033 4281827000
0.22937094 0.80344391 0.28226534 4294967091
0.24531761 0.78194672 0.40780324 4281827000
0.18469469 0.72581565 0.35685369 4281827000
0.18847919 0.69793177 0.33719605 4281827000
0.15970019 0.72463644 0.3217324 4281827000
0.16115399 0.7132681 0.31651971 4281827000
0.15332006 0.70886552 0.31391597 4281827000
0.15471633 0.71215612 0.30957276 4281827000
0.21744801 0.77670765 0.360342 4281827000
0.22850864 0.80368358 0.27747768 4294967091
0.16123928 0.71402246 0.31246898 4281827000
0.14870691 0.71630269 0.2941975 4294967091
0.19230372 0.704449 0.3483932 4281827000
0.18986502 0.69878387 0.34031257 4281827000
0.18918961 0.69804853 0.33875945 4281827000
0.18889223 0.6964559 0.33570632 4281827000
0.15702569 0.72590047 0.33445776 4281827000
0.15765509 0.7144472 0.3111659 4281827000
0.23915236 0.77859253 0.3917295 4281827000
0.23242885 0.7784493 0.37609452 4281827000
0.17796765 0.71114397 0.34874833 4281827000
0.24282661 0.79563415 0.40662605 4281827000
0.240153 0.78271687 0.38991809 4281827000
0.23753799 0.77724546 0.38940594 4281827000
0.21954335 0.78588104 0.36506218 4281827000
0.19168603 0.69718128 0.33947539 4281827000
0.16512038 0.70932639 0.33187819 4281827000
0.24715914 0.78556901 0.41283318 4281827000
0.13655753 0.72745544 0.2643804 4294967091
0.24897684 0.79120636 0.41510957 4281827000
0.23276979 0.79706067 0.30679336 4294967091
0.23272817 0.7975238 0.30115044 4294967091
0.15869886 0.72398889 0.33495745 4281827000
0.15841265 0.71355164 0.31269577 4281827000
0.16169098 0.71164382 0.31489229 4281827000
0.25262219 0.78775549 0.42395878 4281827000
0.25341734 0.78320497 0.41932431 4281827000
0.23238406 0.79748303 0.29855058 4294967091
0.17941079 0.71197104 0.35025764 4281827000
0.15857556 0.72323924 0.32948586 4281827000
0.13590059 0.73068798 0.26026472 4294967091
0.2211571 0.78446579 0.35939753 4281827000
0.18384092 0.7185145 0.35559815 4281827000
0.17682911 0.70891637 0.34544268 4281827000
0.16343035 0.71518642 0.32667911 4281827000
0.17967051 0.71742648 0.35342005 4281827000
0.23031312 0.80063325 0.28524503 4294967091
0.18022177 0.71345907 0.35165223 4281827000
0.25320831 0.78505367 0.42114785 4281827000
0.24823111 0.7865274 0.41659576 4281827000
0.22991683 0.79620498 0.31158555 4294967091
0.18468556 0.71583897 0.35451686 4281827000
0.22240241 0.80980814 0.26747519 4294967091
0.16640413 0.71112144 0.32802182 4281827000
0.1528585 0.71315789 0.30348805 4294967091
0.25335073 0.78651339 0.42290151 4281827000
0.23028594 0.80079436 0.2892397 4294967091
0.23987994 0.78041929 0.39379084 4281827000
0.1849864 0.72115731 0.35709447 4281827000
0.25511587 0.78545636 0.42392793 4281827000
0.24925987 0.78289348 0.41549924 4281827000
0.18266891 0.72310966 0.35691312 4281827000
0.16167663 0.71847504 0.33405477 4281827000
0.16284135 0.72094554 0.33895755 4281827000
0.16708893 0.70958126 0.3266066 4281827000
0.16203503 0.71120387 0.31761238 4281827000
0.15476762 0.7084955 0.31520465 4281827000
0.22497383 0.80510008 0.27446723 4294967091
0.22872972 0.80132735 0.28181142 4294967091
0.15521832 0.72884405 0.26411703 4294967091
0.14991209 0.72736037 0.26396373 4294967091
0.21620657 0.78507811 0.36629763 4281827000
0.14206903 0.72734296 0.26282507 4294967091
0.25464994 0.80367225 0.42070091 4293138972
0.26944438 0.81574762 0.43406883 4293138972
0.26930353 0.80931485 0.42830962 4293138972
0.23250283 0.79849058 0.30398628 4294967091
0.18994382 0.69680882 0.33770031 4281827000
0.13760912 0.72652751 0.26524675 4294967091
0.27325237 0.81293422 0.43682885 4293138972
0.27108034 0.81477416 0.43622595 4293138972
0.27265894 0.81142539 0.43400016 4293138972
0.27029955 0.8122822 0.43199655 4293138972
0.24548255 0.75786453 0.36577782 4281827000
0.23126085 0.79976958 0.31047156 4294967091
0.23112389 0.79929382 0.29198769 4294967091
0.2309334 0.79847163 0.28871796 4294967091
0.1873925 0.69524175 0.33457237 4281827000
0.21435191 0.7763859 0.35963568 4281827000
0.23120326 0.79911476 0.29687181 4294967091
0.17077823 0.74570447 0.34635264 4281827000
0.23168893 0.79769135 0.29556876 4294967091
0.23077205 0.79661983 0.29258785 4294967091
0.22333401 0.80909318 0.2732138 4294967091
0.17680754 0.70533288 0.33850884 4281827000
0.17949155 0.70906955 0.34663254 4281827000
0.21070734 0.77835506 0.35337877 4281827000
0.1919224 0.69556445 0.33794242 4281827000
0.15470088 0.70619214 0.31647685 4281827000
0.15375276 0.70867133 0.31262243 4281827000
0.23246433 0.79627073 0.30366251 4294967091
0.1870802 0.70842129 0.35104936 4281827000
0.22750324 0.80386823 0.28092793 4294967091
0.22326085 0.80560702 0.27164525 4294967091
0.22166733 0.81050277 0.26470956 4294967091
0.13806979 0.7264877 0.260869 4294967091
0.2222915 0.79153651 0.32175636 4281827000
0.14865386 0.7062943 0.31321558 4281827000
0.14665025 0.71872628 0.2813054 4294967091
0.21930888 0.78349286 0.36402485 4281827000
0.18276836 0.70817208 0.34877065 4281827000
0.16277036 0.71785253 0.34000134 4281827000
0.22875178 0.80147737 0.28702992 4294967091
0.17690134 0.71421361 0.35103983 4281827000
0.22992487 0.79420704 0.29727685 4294967091
0.17897964 0.70832825 0.34421188 4281827000
0.17546687 0.70710647 0.34266391 4281827000
0.16030683 0.72706604 0.33650041 4281827000
0.14740729 0.71593195 0.29290739 4294967091
0.22408216 0.81020379 0.27573839 4294967091
0.16459118 0.71148759 0.31748858 4281827000
0.17181394 0.71013665 0.34455368 4281827000
0.15103261 0.72415912 0.30479568 4294967091
0.15136176 0.71129596 0.30895939 4281827000
0.14735623 0.71817404 0.28431454 4294967091
0.19145371 0.76664197 0.33341402 4281827000
0.13964155 0.72703511 0.26254001 4294967091
0.15456404 0.72814566 0.30897036 4294967091
0.14026953 0.72438157 0.26915345 4294967091
0.26680765 0.81744033 0.42945626 4293138972
0.16040517 0.73046064 0.3076472 4294967091
0.24501182 0.79666197 0.41174117 4281827000
0.15842198 0.72854799 0.307511 4294967091
0.13398944 0.73234206 0.26020443 4294967091
0.26823506 0.81451946 0.43067682 4293138972
0.19000117 0.76501733 0.33913407 4281827000
0.15727536 0.72698712 0.3375223 4281827000
0.15715364 0.70460272 0.32547206 4281827000
0.16582762 0.71032965 0.32050729 4281827000
0.17339328 0.71203625 0.34803098 4281827000
0.22159684 0.80961186 0.27090305 4294967091
0.14428167 0.71872908 0.27989385 4294967091
0.22309072 0.80691749 0.27120209 4294967091
0.24307021 0.78051895 0.40344971 4281827000
0.14768699 0.69326371 0.31160864 4281827000
0.22608159 0.80576217 0.27129549 4294967091
0.17192777 0.70513523 0.32963735 4281827000
0.16521299 0.70413059 0.33305421 4281827000
0.21426553 0.77964437 0.35920474 4281827000
0.18400109 0.69894046 0.33688024 4281827000
0.18659988 0.69441396 0.33333299 4281827000
0.18530796 0.69528723 0.33168012 4281827000
0.1481797 0.71375257 0.29580763 4281827000
0.24565195 0.79164845 0.41298813 4281827000
0.18470114 0.72441638 0.35872531 4281827000
0.18587454 0.69725126 0.33565146 4281827000
0.22047246 0.81147134 0.26314029 4294967091
0.2283466 0.80270791 0.31287006 4294967091
0.22875282 0.80303591 0.30884829 4294967091
0.18520269 0.69658846 0.33374158 4281827000
0.21806456 0.78898638 0.35529259 4281827000
0.21819566 0.7915293 0.35142681 4281827000
0.23627698 0.7972188 0.39836073 4281827000
0.18326268 0.69840187 0.3350749 4281827000
0.15922235 0.72226995 0.3243047 4281827000
0.17199288 0.73343277 0.35563809 4281827000
0.18463539 0.72232276 0.35831657 4281827000
0.22714902 0.80432802 0.27431267 4294967091
0.1547136 0.72967887 0.31808889 4294967091
0.13305378 0.73286533 0.26221392 4294967091
0.18468946 0.72763371 0.3605696 4281827000
0.22659732 0.80595034 0.29660046 4294967091
0.2567161 0.77363229 0.39722914 4281827000
0.22476719 0.80740678 0.28948873 4294967091
0.17306527 0.73588878 0.35594958 4281827000
0.25959069 0.77767783 0.40853709 4281827000
0.25477475 0.77220333 0.39332059 4281827000
0.18327326 0.6974557 0.33312315 4281827000
0.25880256 0.77987462 0.41326398 4281827000
0.21379898 0.78768295 0.3572602 4281827000
0.22040865 0.78853339 0.3759822 4281827000
0.15729721 0.69615018 0.32648936 4281827000
0.15055287 0.72662872 0.30581111 4294967091
0.15032797 0.72697669 0.30987084 4294967091
0.26087072 0.77876943 0.41078448 4281827000
0.17936942 0.75181222 0.35364732 4281827000
0.17711599 0.71957368 0.35502011 4281827000
0.149261 0.69777215 0.31887576 4281827000
0.14181697 0.69563311 0.31100422 4281827000
0.25716567 0.77906048 0.40869781 4281827000
0.24913634 0.77134252 0.38625923 4281827000
0.21212284 0.78441745 0.36549869 4281827000
0.21119495 0.78078228 0.36269575 4281827000
0.18737438 0.71458346 0.3553167 4281827000
0.2557427 0.77635056 0.40107086 4281827000
0.25147405 0.77351826 0.39120895 4281827000
0.25002483 0.76965749 0.38504806 4281827000
0.19014399 0.7093668 0.35140267 4281827000
0.25464839 0.77555853 0.39908412 4281827000
0.24760292 0.77051258 0.38230404 4281827000
0.24574538 0.76972902 0.38028026 4281827000
0.24575856 0.76821935 0.37709704 4281827000
0.22800238 0.80465537 0.30615687 4294967091
0.25282121 0.77357113 0.3946062 4281827000
0.25051001 0.77434194 0.39347675 4281827000
0.25132331 0.77100021 0.38829252 4281827000
0.22716257 0.80567235 0.30256641 4294967091
0.14306846 0.72522354 0.2913188 4294967091
0.17272788 0.74686617 0.35332114 4281827000
0.13302456 0.73155391 0.26556572 4294967091
0.1563061 0.73467737 0.32649499 4294967091
0.14461178 0.72379345 0.29724133 4294967091
0.2176815 0.81637055 0.26483327 4294967091
0.25413424 0.77458209 0.39626586 4281827000
0.15792839 0.72620481 0.3415966 4281827000
0.14737977 0.71708512 0.29915082 4294967091
0.21795852 0.81408507 0.26725614 4294967091
0.15939879 0.72278482 0.34328747 4281827000
0.25581381 0.7766661 0.40393746 4281827000
0.24841443 0.77440006 0.39134318 4281827000
0.15455289 0.72909164 0.33018246 4281827000
0.21978742 0.79053104 0.37707907 4281827000
0.18227866 0.71199346 0.35209849 4281827000
0.14590475 0.69693369 0.31536388 4281827000
0.1478774 0.69681644 0.31710982 4281827000
0.23089322 0.79522318 0.39403427 4281827000
0.22674744 0.80638212 0.29942009 4294967091
0.22523719 0.80854911 0.29905406 4294967091
0.21803242 0.7895003 0.37514281 4281827000
0.16674328 0.70315522 0.33891985 4281827000
0.21831259 0.78719842 0.37437341 4281827000
0.23845233 0.76664859 0.37311405 4281827000
0.14175202 0.72566837 0.28910524 4294967091
0.25075474 0.7753644 0.39567748 4281827000
0.18240276 0.69893324 0.3311604 4281827000
0.25788668 0.7802211 0.41560322 4281827000
0.23822565 0.76419491 0.36991802 4281827000
0.13240618 0.73373157 0.26387987 4294967091
0.25874662 0.7811411 0.41745332 4281827000
0.25525439 0.77872139 0.40642983 4281827000
0.25298476 0.77823442 0.40356195 4281827000
0.25284201 0.77759886 0.40129182 4281827000
0.25287315 0.775482 0.39831355 4281827000
0.25124514 0.77749759 0.3988359 4281827000
0.24577959 0.77538061 0.39174962 4281827000
0.24494042 0.77379733 0.38876846 4281827000
0.18203765 0.70062226 0.3374258 4281827000
0.25876722 0.78259528 0.41987157 4281827000
0.25023669 0.77163821 0.38887435 4281827000
0.24656078 0.77287906 0.38704175 4281827000
0.24810657 0.77159613 0.38381493 4281827000
0.24571531 0.77212453 0.38504145 4281827000
0.23567203 0.7698853 0.37730825 4281827000
0.23575355 0.77088487 0.37848976 4281827000
0.23855852 0.76979399 0.37858805 4281827000
0.26210374 0.78340238 0.42177084 4293138972
0.17424121 0.73775238 0.35704535 4281827000
0.15502436 0.69813418 0.32677689 4281827000
0.18199377 0.69974786 0.33457994 4281827000
0.23836894 0.79764807 0.40754959 4281827000
0.14029022 0.69708198 0.31201783 4281827000
0.1350574 0.69727516 0.3095873 4281827000
0.13120371 0.73472446 0.26190805 4294967091
0.23206162 0.79737926 0.4001084 4281827000
0.2226076 0.80895382 0.28386492 4294967091
0.14527637 0.72612286 0.30413982 4294967091
0.22478531 0.80744767 0.29649845 4294967091
0.14507617 0.72714067 0.30137363 4294967091
0.25725895 0.77732766 0.40704128 4281827000
0.22423689 0.80790317 0.29319507 4294967091
0.22271153 0.80884981 0.29034904 4294967091
0.16931793 0.70640081 0.34265453 4281827000
0.22645424 0.79522759 0.38575307 4281827000
0.18156204 0.70576495 0.34111869 4281827000
0.18087424 0.70097089 0.33519965 4281827000
0.22315225 0.80825281 0.28719774 4294967091
0.25408432 0.77736944 0.40381342 4281827000
0.15498242 0.72974288 0.32465905 4294967091
0.22765553 0.79564321 0.38870129 4281827000
0.24228118 0.7720412 0.3825134 4281827000
0.23664118 0.7717784 0.38023728 4281827000
0.23445049 0.76656061 0.37150458 4281827000
0.24447501 0.77491319 0.38992909 4281827000
0.22919381 0.79460829 0.39286089 4281827000
0.23975503 0.77299917 0.38425913 4281827000
0.23443384 0.79860497 0.4017688 4281827000
0.24034537 0.77088034 0.3806417 4281827000
0.16657729 0.73435313 0.35324997 4281827000
0.13358685 0.72867393 0.26875859 4294967091
0.24998237 0.77678388 0.39739865 4281827000
0.24880569 0.77618867 0.39570439 4281827000
0.18724945 0.71869916 0.35646316 4281827000
0.15244764 0.69695896 0.32264209 4281827000
0.15088002 0.69845814 0.3219769 4281827000
0.14268959 0.69584394 0.31189811 4281827000
0.14151995 0.72653931 0.29084632 4294967091
0.23911963 0.77234423 0.38210452 4281827000
0.21623629 0.78852278 0.37319037 4281827000
0.17108405 0.73734111 0.35590276 4281827000
0.15225241 0.69881022 0.32479012 4281827000
0.13917139 0.69674468 0.31065854 4281827000
0.13736831 0.697936 0.31089729 4281827000
0.25615785 0.78032213 0.41325301 4281827000
0.15988199 0.73597103 0.34506962 4281827000
0.16498514 0.70891213 0.3421286 4281827000
0.15625928 0.69872802 0.32877356 4281827000
0.15292823 0.73143899 0.31892675 4294967091
0.14343145 0.69792014 0.31438696 4281827000
0.14213298 0.69719464 0.31308916 4281827000
0.12586068 0.69987959 0.30755597 4281827000
0.14156683 0.72733778 0.29244232 4294967091
0.23188029 0.79598737 0.39724404 4281827000
0.14722659 0.69891649 0.31833079 4281827000
0.13611914 0.69740063 0.30996093 4281827000
0.23510109 0.78896517 0.40159139 4281827000
0.15253255 0.73335391 0.31980392 4294967091
0.15521722 0.72325581 0.30939606 4294967091
0.23415047 0.79144549 0.40102088 4281827000
0.23325409 0.79106712 0.39764562 4281827000
0.15217124 0.73289454 0.31735754 4294967091
0.15208481 0.73039252 0.31029397 4294967091
0.24706888 0.7759344 0.39393342 4281827000
0.24554433 0.77677375 0.39370283 4281827000
0.2434756 0.77941215 0.39547032 4281827000
0.13636449 0.69923288 0.31138349 4281827000
0.14291745 0.72589326 0.29678777 4294967091
0.23743135 0.79942513 0.40891635 4281827000
0.23648544 0.79800266 0.40642947 4281827000
0.2356852 0.79839724 0.40468055 4281827000
0.24207638 0.77442092 0.38836369 4281827000
0.22885779 0.78590518 0.38413647 4281827000
0.2115968 0.7802763 0.36549845 4281827000
0.18114321 0.70327306 0.3399407 4281827000
0.18109773 0.70013291 0.33267286 4281827000
0.1789327 0.70218045 0.33398739 4281827000
0.14769328 0.72653991 0.30818501 4294967091
0.13910113 0.69871956 0.31256551 4281827000
0.14444332 0.72723687 0.30495128 4294967091
0.12786043 0.7001211 0.30851763 4281827000
0.23802601 0.76260108 0.36700082 4281827000
0.23352949 0.76412982 0.36911345 4281827000
0.18547931 0.70258009 0.34199437 4281827000
0.14465733 0.69842738 0.3156811 4281827000
0.13149105 0.73310423 0.26124868 4294967091
0.2488344 0.7783522 0.39878985 4281827000
0.24663147 0.77820945 0.39724711 4281827000
0.24675889 0.77400428 0.39014 4281827000
0.24338008 0.77630705 0.3915 4281827000
0.2397567 0.77755916 0.39089057 4281827000
0.21420433 0.77234703 0.36489448 4281827000
0.1619778 0.73431343 0.34888914 4281827000
0.24292178 0.80094123 0.41624352 4281827000
0.23063929 0.79398471 0.3956176 4281827000
0.18160525 0.70903075 0.34652448 4281827000
0.22101749 0.80984461 0.28246084 4294967091
0.25639459 0.77654034 0.40588883 4281827000
0.2501114 0.77866739 0.40026081 4281827000
0.21927826 0.78474951 0.37570578 4281827000
0.16319816 0.73110473 0.34960359 4281827000
0.14721885 0.72914988 0.30488271 4294967091
0.25469947 0.78011966 0.40965921 4281827000
0.25289595 0.78047711 0.40791899 4281827000
0.25240028 0.77843845 0.40557674 4281827000
0.25152144 0.77914983 0.40347898 4281827000
0.18427557 0.7104764 0.35165441 4281827000
0.15568992 0.72462356 0.33145085 4281827000
0.14469066 0.7296589 0.30460739 4294967091
0.1813782 0.71384948 0.35273543 4281827000
0.14938343 0.698569 0.32074532 4281827000
0.25497749 0.78238773 0.41621771 4281827000
0.25398016 0.78132421 0.41296741 4281827000
0.2539295 0.78051561 0.40955609 4281827000
0.15978108 0.72656447 0.34559223 4281827000
0.15585203 0.72827154 0.33927047 4281827000
0.14775741 0.6987341 0.31963181 4281827000
0.14816973 0.72970831 0.30997744 4294967091
0.13749675 0.6996271 0.31229874 4281827000
0.12974429 0.6999011 0.30951178 4281827000
0.12824443 0.70127565 0.31019831 4281827000
0.253373 0.77905089 0.40745676 4281827000
0.25227636 0.78126681 0.40946397 4281827000
0.22102265 0.79096365 0.37941301 4281827000
0.25545627 0.77977294 0.41141906 4281827000
0.24854092 0.77732283 0.39773121 4281827000
0.25146958 0.77300304 0.39380533 4281827000
0.24904767 0.77496845 0.39445016 4281827000
0.24837947 0.77413297 0.39264455 4281827000
0.24235415 0.77879494 0.39375493 4281827000
0.24170895 0.76956511 0.37982002 4281827000
0.24455516 0.78491789 0.41900897 4281827000
0.2574665 0.77846563 0.41125265 4281827000
0.25535318 0.77784067 0.40593562 4281827000
0.25174719 0.78021705 0.40738639 4281827000
0.24998695 0.78079665 0.40643498 4281827000
0.24979277 0.78012753 0.40412685 4281827000
0.24813896 0.78016961 0.40154549 4281827000
0.2511501 0.77543759 0.39736176 4281827000
0.17443863 0.71061563 0.34691176 4281827000
0.21657102 0.81808376 0.26418114 4294967091
0.1416817 0.72819817 0.29654393 4294967091
0.2512911 0.78601551 0.42614388 4281827000
0.24041156 0.7670089 0.37376842 4281827000
0.23800907 0.76529038 0.37170702 4281827000
0.16719213 0.7057898 0.34184536 4281827000
0.1469502 0.70048606 0.32035193 4281827000
0.14943798 0.73137873 0.31148455 4294967091
0.26160404 0.78607655 0.42421448 4293138972
0.25634855 0.78580111 0.42509425 4293138972
0.24822088 0.78622431 0.42761153 4281827000
0.25553489 0.78478533 0.42272958 4281827000
0.24811223 0.78627616 0.42551044 4281827000
0.25459364 0.78316098 0.42052698 4281827000
0.24695368 0.78585565 0.42330408 4281827000
0.24277121 0.78570193 0.42046824 4281827000
0.24768671 0.77954698 0.39930227 4281827000
0.23020495 0.79205281 0.39356554 4281827000
0.23424302 0.76467472 0.36992344 4281827000
0.20709273 0.78047347 0.35849309 4281827000
0.14036325 0.69793499 0.31298065 4281827000
0.13786131 0.69836712 0.3118307 4281827000
0.18067403 0.70669347 0.3453486 4281827000
0.27398157 0.78131455 0.43598637 4293138972
0.273626 0.78409874 0.43690735 4293138972
0.27272853 0.78541869 0.43637073 4293138972
0.27331918 0.78191197 0.43363488 4293138972
0.27138004 0.78612363 0.43524581 4293138972
0.27007419 0.78757215 0.43495932 4293138972
0.27146006 0.78403413 0.43248233 4293138972
0.2562812 0.78228772 0.41857317 4281827000
0.25218612 0.78408009 0.41897994 4281827000
0.24498704 0.78592491 0.42244685 4281827000
0.21120985 0.78679579 0.3657338 4281827000
0.18298833 0.70266038 0.34033248 4281827000
0.18047665 0.7015453 0.3335616 4281827000
0.15398756 0.73585248 0.32470617 4294967091
0.27460325 0.78185856 0.44017014 4293138972
0.27427471 0.78376198 0.44105318 4293138972
0.27446473 0.78215116 0.43772331 4293138972
0.27327436 0.78584826 0.43855318 4293138972
0.15903501 0.71974468 0.32451594 4281827000
0.14565186 0.69820684 0.31690842 4281827000
0.13210054 0.70036083 0.31089893 4281827000
0.12526293 0.70137143 0.30819556 4281827000
0.12898907 0.73685354 0.26150182 4294967091
0.22993305 0.79671538 0.39513439 4281827000
0.23924653 0.7742399 0.38550603 4281827000
0.23679583 0.77560788 0.38661656 4281827000
0.22770895 0.79632461 0.39144415 4281827000
0.23418473 0.7746287 0.38429728 4281827000
0.23126939 0.77045459 0.37579998 4281827000
0.23564415 0.7651329 0.37015572 4281827000
0.23536488 0.76699448 0.37272942 4281827000
0.1702878 0.73971528 0.35479069 4281827000
0.13513052 0.70824122 0.31167796 4281827000
0.13037309 0.70152706 0.31091604 4281827000
0.14204741 0.72843152 0.30023488 4294967091
0.14238012 0.72256291 0.29161885 4294967091
0.25134784 0.77943921 0.40503836 4281827000
0.19258374 0.72170424 0.35876587 4281827000
0.17895864 0.7047621 0.33747002 4281827000
0.15875269 0.72094846 0.3215138 4281827000
0.25153068 0.77890402 0.401712 4281827000
0.24981588 0.77972621 0.40183419 4281827000
0.24978499 0.77227414 0.3920874 4281827000
0.23318477 0.76828939 0.37276733 4281827000
0.18292049 0.70171171 0.33889541 4281827000
0.13381961 0.69922054 0.31063902 4281827000
0.13184208 0.73217529 0.26359344 4294967091
0.24242617 0.77078849 0.38133079 4281827000
0.2171426 0.81204599 0.27089727 4294967091
0.14986113 0.7238639 0.3085911 4294967091
0.2305406 0.79771608 0.39760989 4281827000
0.23490293 0.7731725 0.38191742 4281827000
0.14841869 0.69995815 0.32138091 4281827000
0.14088367 0.69916403 0.31402999 4281827000
0.26085398 0.785124 0.42261922 4293138972
0.25673696 0.78296155 0.4215273 4281827000
0.22430921 0.79364794 0.38236171 4281827000
0.17840326 0.70729035 0.34222451 4281827000
0.17327373 0.70823115 0.34109434 4281827000
0.17971727 0.70153946 0.33197695 4281827000
0.22293139 0.80834413 0.29528704 4294967091
0.15637209 0.69938797 0.32972723 4281827000
0.15643683 0.70055747 0.33092839 4281827000
0.21647221 0.81251919 0.26851091 4294967091
0.216492 0.81866729 0.26154348 4294967091
0.14028735 0.72841114 0.29052272 4294967091
0.13734639 0.72530764 0.2771349 4294967091
0.135619 0.72743678 0.27315465 4294967091
0.23153149 0.7618131 0.36618465 4281827000
0.16891915 0.73008168 0.35459453 4281827000
0.25466463 0.78218281 0.41441831 4281827000
0.23247327 0.76283687 0.36720139 4281827000
0.14303318 0.72221935 0.29529503 4294967091
0.2540243 0.78098208 0.41135344 4281827000
0.24057269 0.76799107 0.37713709 4281827000
0.23050788 0.76730031 0.37144101 4281827000
0.21242292 0.78412545 0.36760077 4281827000
0.17779404 0.70614469 0.34095758 4281827000
0.15073223 0.69894552 0.32353279 4281827000
0.14632694 0.69783628 0.31754827 4281827000
0.14386527 0.69984853 0.31679109 4281827000
0.14136079 0.69970697 0.31541198 4281827000
0.2664181 0.78700471 0.42859733 4293138972
0.26388213 0.78662986 0.42716736 4293138972
0.24648125 0.77210945 0.38704562 4281827000
0.22884782 0.79468352 0.39056763 4281827000
0.23180398 0.76952112 0.37435886 4281827000
0.21797273 0.77382874 0.37337741 4281827000
0.1547119 0.70023936 0.32851562 4281827000
0.15255883 0.69952196 0.32645497 4281827000
0.15341043 0.73474759 0.3215307 4294967091
0.14659537 0.72767317 0.30701903 4294967091
0.13280344 0.70077759 0.31199932 4281827000
0.15119767 0.73148054 0.31552857 4294967091
0.15093634 0.72790587 0.31297269 4294967091
0.14883833 0.72299826 0.30767128 4294967091
0.14686614 0.72920728 0.30795217 4294967091
0.1450825 0.73141032 0.30521369 4294967091
0.14293252 0.72772306 0.30234513 4294967091
0.25523958 0.77863032 0.40889704 4281827000
0.2509869 0.78623807 0.4287205 4281827000
0.25056189 0.78246135 0.41280136 4281827000
0.25014806 0.78161108 0.41057408 4281827000
0.24648778 0.78102136 0.40152371 4281827000
0.24412645 0.77705061 0.39278883 4281827000
0.24190041 0.77675372 0.39122349 4281827000
0.23896985 0.77530569 0.38657129 4281827000
0.17740306 0.71231949 0.34981972 4281827000
0.14346536 0.70028901 0.31824428 4281827000
0.14940415 0.73271418 0.31263396 4294967091
0.14931646 0.72897381 0.31094718 4294967091
0.14305556 0.72988951 0.30284289 4294967091
0.23722266 0.79401553 0.40734902 4281827000
0.24611768 0.78037226 0.39912876 4281827000
0.23390698 0.76946491 0.37581068 4281827000
0.22267713 0.7938503 0.38062885 4281827000
0.19382744 0.7272225 0.36117208 4281827000
0.17808653 0.70340335 0.32864833 4281827000
0.14945298 0.69946367 0.32200998 4281827000
0.14213178 0.70008439 0.31673685 4281827000
0.25264436 0.78330302 0.41751784 4281827000
0.22612451 0.79710519 0.38677979 4281827000
0.22809653 0.76575291 0.36939391 4281827000
0.20484675 0.77622843 0.35680118 4281827000
0.14963391 0.73416203 0.31367692 4294967091
0.14882082 0.72290492 0.30621302 4294967091
0.14488383 0.72363585 0.30346423 4294967091
0.15347566 0.73666155 0.32622147 4294967091
0.2287105 0.79787064 0.39420342 4281827000
0.2167484 0.77334327 0.37184954 4281827000
0.17596406 0.70528883 0.33685261 4281827000
0.17460153 0.70705867 0.33782372 4281827000
0.16753 0.70809132 0.34323847 4281827000
0.15724045 0.72528052 0.32126117 4281827000
0.15750687 0.72507262 0.31428602 4294967091
0.14805347 0.73204458 0.3105827 4294967091
0.1401553 0.73027825 0.29291594 4294967091
0.17860429 0.7043196 0.33589867 4281827000
0.15241727 0.72784317 0.31394693 4294967091
0.13283579 0.7290293 0.26653051 4294967091
0.22722553 0.79251236 0.38668093 4281827000
0.15240316 0.73614681 0.321293 4294967091
0.21604924 0.81613481 0.26878053 4294967091
0.25145674 0.78256685 0.41437918 4281827000
0.20742719 0.77594876 0.35936728 4281827000
0.14915472 0.70040524 0.32314023 4281827000
0.14340986 0.70247525 0.32022262 4281827000
0.15007299 0.73225272 0.31427112 4294967091
0.13732012 0.70081931 0.31371176 4281827000
0.13454194 0.70026952 0.31245494 4281827000
0.14113614 0.72973287 0.29882008 4294967091
0.25183663 0.78334713 0.41583088 4281827000
0.24514477 0.77850288 0.39470825 4281827000
0.23935169 0.77613366 0.38821334 4281827000
0.21756205 0.79146063 0.37615988 4281827000
0.21622516 0.81368762 0.27200317 4294967091
0.1518614 0.73490775 0.31828493 4294967091
0.13948441 0.70092112 0.31492501 4281827000
0.14318146 0.73238468 0.30153599 4294967091
0.21959709 0.79274219 0.37803319 4281827000
0.16056556 0.73212278 0.34761196 4281827000
0.25883996 0.78686178 0.42842337 4293138972
0.17405461 0.70966989 0.34299251 4281827000
0.17836499 0.70290256 0.33114836 4281827000
0.23590584 0.79449683 0.4067342 4281827000
0.21427293 0.78835726 0.37172961 4281827000
0.15347125 0.73301375 0.32618412 4294967091
0.14537005 0.69974154 0.31831971 4281827000
0.25769353 0.78464991 0.42331046 4281827000
0.22180985 0.77170044 0.37707245 4281827000
0.22926055 0.76755309 0.37087142 4281827000
0.22989374 0.76535529 0.36913383 4281827000
0.17815515 0.73644692 0.36171296 4281827000
0.18239725 0.70695698 0.34290802 4281827000
0.21667436 0.81208068 0.27275848 4294967091
0.14081793 0.70121938 0.31646258 4281827000
0.1445708 0.72137898 0.29980633 4294967091
0.14232288 0.72629952 0.30140635 4294967091
0.25011742 0.78118891 0.40804914 4281827000
0.24835536 0.78107578 0.40394378 4281827000
0.23313756 0.79395646 0.40350994 4281827000
0.16344129 0.70993423 0.34252128 4281827000
0.1578894 0.70288521 0.33401209 4281827000
0.15048674 0.70019078 0.32515955 4281827000
0.14876249 0.70304358 0.32604328 4281827000
0.2171572 0.81290656 0.27521563 4294967091
0.1509219 0.73459184 0.31679103 4294967091
0.13610493 0.72996819 0.27951312 4294967091
0.23294136 0.79432148 0.40173176 4281827000
0.17767525 0.7405315 0.36143672 4281827000
0.15652272 0.72149879 0.33535752 4281827000
0.25586739 0.78186762 0.41821837 4281827000
0.24451755 0.78140384 0.4007743 4281827000
0.22700192 0.79754037 0.38861349 4281827000
0.16891074 0.70997971 0.34351766 4281827000
0.16021839 0.70561576 0.33748314 4281827000
0.15735404 0.70120078 0.33228055 4281827000
0.15369497 0.73162609 0.33076978 4281827000
0.15284654 0.70099181 0.32763591 4281827000
0.14532857 0.70014161 0.31961238 4281827000
0.13888714 0.69966495 0.31370807 4281827000
0.26963541 0.78617316 0.43199047 4293138972
0.22873589 0.77086854 0.37676156 4281827000
0.23060213 0.76629263 0.37046304 4281827000
0.17696118 0.71690655 0.35470521 4281827000
0.15333556 0.73241019 0.32197863 4294967091
0.15312272 0.73582047 0.32303855 4294967091
0.15382726 0.73936415 0.32219553 4294967091
0.15111622 0.73643839 0.31763947 4294967091
0.27225116 0.78426969 0.43412581 4293138972
0.24781866 0.78135854 0.4084461 4281827000
0.24778756 0.7809723 0.40662086 4281827000
0.24540855 0.77923161 0.39715114 4281827000
0.2383716 0.77453107 0.38541889 4281827000
0.23227943 0.76560199 0.37052113 4281827000
0.17233388 0.72241122 0.35581446 4281827000
0.15222071 0.73564935 0.31961009 4294967091
0.15142836 0.73714989 0.31915927 4294967091
0.14552681 0.72876513 0.30670482 4294967091
0.131065 0.73392314 0.26271528 4294967091
0.24023601 0.78421736 0.41865936 4281827000
0.16166565 0.71075028 0.34177902 4281827000
0.27125818 0.78751689 0.43654996 4293138972
0.25884664 0.7862922 0.42613801 4293138972
0.18021135 0.7036826 0.33754769 4281827000
0.15848333 0.71750635 0.33887732 4281827000
0.15267964 0.73394656 0.32983664 4294967091
0.14379242 0.7237035 0.30087891 4294967091
0.13791981 0.72990102 0.2823168 4294967091
0.25222695 0.78165066 0.41210109 4281827000
0.23718221 0.78383321 0.41694212 4281827000
0.24517351 0.77257943 0.38344809 4281827000
0.13226174 0.70258272 0.31391209 4281827000
0.21849406 0.78141516 0.37595299 4281827000
0.17346033 0.71537334 0.35231748 4281827000
0.15305109 0.73344612 0.33188584 4281827000
0.14102665 0.73141408 0.29483727 4294967091
0.26920187 0.78853339 0.43455926 4293138972
0.24607326 0.78179497 0.40745586 4281827000
0.22475135 0.79562384 0.38409612 4281827000
0.17054538 0.71211833 0.3476817 4281827000
0.17729677 0.70471376 0.33431998 4281827000
0.15362757 0.73000252 0.33531797 4281827000
0.15474306 0.72391868 0.30995449 4294967091
0.14726613 0.73316914 0.30829492 4294967091
0.14573342 0.73239011 0.30636713 4294967091
0.13032232 0.70266658 0.31242305 4281827000
0.12784877 0.70410293 0.31212166 4281827000
0.14180994 0.73179781 0.30026999 4294967091
0.14129084 0.72727054 0.29901218 4294967091
0.16185516 0.70563614 0.33931148 4281827000
0.1604839 0.70952636 0.34070149 4281827000
0.24035484 0.77437687 0.38616183 4281827000
0.22113042 0.81028694 0.28773406 4294967091
0.13452154 0.70134461 0.31344795 4281827000
0.13404644 0.70256025 0.31463009 4281827000
0.24728912 0.78641427 0.43098542 4281827000
0.17853534 0.73050702 0.36090046 4281827000
0.22021489 0.81204981 0.28337035 4294967091
0.26287198 0.78468108 0.42261162 4293138972
0.17924924 0.71022278 0.34771138 4281827000
0.14853595 0.73495799 0.31067985 4294967091
0.14096017 0.73166627 0.2967321 4294967091
0.26848611 0.7876935 0.43315563 4293138972
0.2583999 0.78549606 0.42465341 4293138972
0.23798798 0.7769624 0.38979438 4281827000
0.18866907 0.72270113 0.35945594 4281827000
0.17970656 0.71602088 0.35367972 4281827000
0.15950553 0.70730156 0.34049925 4281827000
0.14712852 0.70278049 0.32408288 4281827000
0.1527338 0.72845334 0.31577876 4294967091
0.27227682 0.78766018 0.43905452 4293138972
0.27142864 0.78919059 0.43809077 4293138972
0.27123848 0.78574067 0.43377894 4293138972
0.27003321 0.78993076 0.4365572 4293138972
0.27014595 0.7869339 0.43334618 4293138972
0.24471003 0.78121561 0.40516534 4281827000
0.23766239 0.77720815 0.38899454 4281827000
0.23419444 0.77592283 0.38671929 4281827000
0.23279893 0.77757841 0.38891223 4281827000
0.2188206 0.79415739 0.37658182 4281827000
0.14196816 0.70319098 0.31966159 4281827000
0.1502458 0.73573178 0.31447506 4294967091
0.14977588 0.73716998 0.31188864 4294967091
0.13851978 0.72950047 0.28435561 4294967091
0.13208006 0.73141927 0.26628461 4294967091
0.17836519 0.70330316 0.33299759 4281827000
0.15082546 0.72270948 0.30749476 4294967091
0.26745987 0.78922665 0.43363988 4293138972
0.26216701 0.7882666 0.43099183 4293138972
0.25198403 0.78586614 0.43091831 4293138972
0.13939419 0.70228648 0.31671214 4281827000
0.14535163 0.72083342 0.30363274 4294967091
0.13682675 0.72973287 0.28140503 4294967091
0.13588808 0.73108238 0.28106794 4294967091
0.25321028 0.78449607 0.42064121 4281827000
0.25027883 0.78502333 0.42060217 4281827000
0.2442486 0.78045261 0.39739326 4281827000
0.24122076 0.78048706 0.39532498 4281827000
0.15492705 0.72627079 0.31548938 4294967091
0.12919384 0.73465478 0.26089171 4294967091
0.26420489 0.78726047 0.42867401 4293138972
0.26102674 0.78654999 0.42837787 4293138972
0.25390017 0.78659028 0.42816445 4293138972
0.23671538 0.76885545 0.37654111 4281827000
0.21620409 0.78484887 0.37394616 4281827000
0.18453678 0.71871465 0.35598731 4281827000
0.17501199 0.71176964 0.34808856 4281827000
0.15048933 0.73305136 0.31581882 4294967091
0.26306355 0.78955853 0.43305483 4293138972
0.23668143 0.7824378 0.39713702 4281827000
0.17537108 0.74149531 0.35963911 4281827000
0.23759025 0.78504133 0.41928354 4281827000
0.2364279 0.77169174 0.37992066 4281827000
0.16286975 0.7119559 0.34424737 4281827000
0.14071332 0.72675067 0.29783821 4294967091
0.25365457 0.78570998 0.42531532 4281827000
0.16803694 0.72339153 0.353257 4281827000
0.16745453 0.71519774 0.35012329 4281827000
0.15115908 0.72481191 0.31075752 4294967091
0.24117473 0.76887244 0.37850475 4281827000
0.22105677 0.79552871 0.37847632 4281827000
0.15465391 0.72897863 0.32050991 4294967091
0.1390378 0.70155245 0.31541434 4281827000
0.23466405 0.78115964 0.40731919 4281827000
0.22351433 0.79642826 0.38211453 4281827000
0.17610918 0.70610642 0.33417761 4281827000
0.15715002 0.72196835 0.34050244 4281827000
0.1551549 0.72687966 0.3255862 4281827000
0.26118296 0.78611237 0.42578921 4293138972
0.23991784 0.78510082 0.42014301 4281827000
0.15538801 0.72789502 0.32170534 4294967091
0.14805728 0.70170546 0.32478887 4281827000
0.15553683 0.72744167 0.31921458 4294967091
0.148791 0.72549844 0.3092331 4294967091
0.22051188 0.78863925 0.37879547 4281827000
0.18165737 0.73757529 0.36374518 4281827000
0.16016106 0.72510016 0.34705475 4281827000
0.15464815 0.72713852 0.32924667 4281827000
0.15646917 0.72634512 0.31966665 4294967091
0.1539747 0.73089284 0.32275641 4294967091
0.27060628 0.78483588 0.43235531 4293138972
0.26551747 0.78933853 0.43202746 4293138972
0.17570621 0.70925456 0.343687 4281827000
0.17579211 0.70756948 0.34088475 4281827000
0.16452157 0.71633178 0.34775847 4281827000
0.16342409 0.71276283 0.34548384 4281827000
0.16206561 0.71554989 0.34525946 4281827000
0.15215173 0.7258783 0.31223813 4294967091
0.24752589 0.78248042 0.4096939 4281827000
0.23733155 0.7726596 0.38184497 4281827000
0.22715408 0.7922805 0.38877532 4281827000
0.22494523 0.79175115 0.38301998 4281827000
0.16622689 0.71087384 0.34478053 4281827000
0.17665106 0.70426917 0.33280936 4281827000
0.16308033 0.71689224 0.34695473 4281827000
0.16285054 0.72854024 0.34990621 4281827000
0.1532447 0.73735338 0.32401842 4294967091
0.27181786 0.78972089 0.43913269 4293138972
0.21210852 0.78956807 0.36903855 4281827000
0.1746916 0.72051138 0.35656351 4281827000
0.16772507 0.71825039 0.35218886 4281827000
0.17856589 0.70578927 0.33908325 4281827000
0.16696857 0.71203297 0.34658137 4281827000
0.13245146 0.730753 0.27025735 4294967091
0.23306432 0.78105378 0.39531794 4281827000
0.23592684 0.77797133 0.39089733 4281827000
0.23486133 0.77952832 0.39232913 4281827000
0.22983317 0.77938694 0.39325893 4281827000
0.22288199 0.78957552 0.38109431 4281827000
0.15565667 0.72512281 0.3281717 4281827000
0.14563082 0.7231347 0.30558184 4294967091
0.21167855 0.79228169 0.36679006 4281827000
0.1759602 0.7049675 0.33068469 4281827000
0.15328045 0.72925007 0.332277 4281827000
0.15733366 0.72435403 0.31259114 4294967091
0.15166022 0.72976345 0.31552711 4294967091
0.17355016 0.71313286 0.34985825 4281827000
0.15733299 0.72369534 0.34317926 4281827000
0.25108805 0.78533524 0.42328292 4281827000
0.24659316 0.78174549 0.40286282 4281827000
0.24308205 0.77530617 0.39006984 4281827000
0.2295599 0.79913253 0.39702269 4281827000
0.2250253 0.79732507 0.38512376 4281827000
0.16783321 0.72065049 0.35265291 4281827000
0.16944081 0.71102184 0.34482697 4281827000
0.15588775 0.72263181 0.3386746 4281827000
0.2259392 0.79333693 0.38487682 4281827000
0.21456039 0.79189837 0.37289613 4281827000
0.21348529 0.78997582 0.37121612 4281827000
0.18381958 0.73272532 0.36357114 4281827000
0.17997271 0.73306561 0.36267495 4281827000
0.16475002 0.73087251 0.35180065 4281827000
0.16515091 0.71223783 0.34602433 4281827000
0.16356763 0.71999049 0.34879574 4281827000
0.16297449 0.73332357 0.3509874 4281827000
0.15903738 0.72398043 0.31397608 4294967091
0.21579334 0.81977063 0.26561642 4294967091
0.24213742 0.78226411 0.40587097 4281827000
0.23913899 0.77936685 0.39349428 4281827000
0.2381621 0.77098644 0.37990323 4281827000
0.23338743 0.77079046 0.3772049 4281827000
0.23157836 0.76752633 0.3715308 4281827000
0.17841996 0.7135914 0.35155672 4281827000
0.17588422 0.71570253 0.35301161 4281827000
0.16476202 0.71422565 0.34691563 4281827000
0.15550995 0.73489857 0.33933151 4281827000
0.14969693 0.72447664 0.30966988 4294967091
0.1931902 0.72339278 0.35920861 4281827000
0.1685607 0.71926671 0.35322961 4281827000
0.24267933 0.78135526 0.39783013 4281827000
0.24094695 0.7756052 0.38934427 4281827000
0.17145701 0.71257466 0.34875503 4281827000
0.15351371 0.72691286 0.31449932 4294967091
0.13597181 0.7286306 0.27950236 4294967091
0.2501919 0.78429013 0.41740057 4281827000
0.24839395 0.78512055 0.41903228 4281827000
0.23297125 0.78310239 0.41009814 4281827000
0.16988693 0.72010797 0.35376921 4281827000
0.16248016 0.70841402 0.34054109 4281827000
0.15870142 0.71552455 0.33985326 4281827000
0.15537648 0.73247117 0.33943143 4281827000
0.19155431 0.72901797 0.36215442 4281827000
0.16440359 0.7339825 0.35207519 4281827000
0.2459292 0.78542751 0.4209134 4281827000
0.21240716 0.77816248 0.3664237 4281827000
0.2088442 0.78143412 0.36288261 4281827000
0.18514614 0.72935933 0.36228627 4281827000
0.15688492 0.72629559 0.31666964 4294967091
0.13293396 0.73214376 0.27794409 4294967091
0.24884993 0.78307766 0.41203606 4281827000
0.13632348 0.73226732 0.2841754 4294967091
0.24192217 0.78526902 0.4231903 4281827000
0.24016993 0.78553718 0.42157757 4281827000
0.22821511 0.79988283 0.39516139 4281827000
0.21586117 0.79171729 0.37453791 4281827000
0.21443704 0.78103101 0.37051061 4281827000
0.17728993 0.7195313 0.3566629 4281827000
0.16775633 0.7287038 0.35391998 4281827000
0.16441701 0.71875733 0.34919387 4281827000
0.15588191 0.73089582 0.34071818 4281827000
0.15615785 0.73360932 0.34117451 4281827000
0.1526944 0.73553586 0.33080485 4294967091
0.26833689 0.7904793 0.43559352 4293138972
0.17599508 0.72121662 0.357391 4281827000
0.1617942 0.72250205 0.34808943 4281827000
0.15131572 0.72359157 0.30949414 4294967091
0.14597529 0.72445333 0.3069725 4294967091
0.14303751 0.72527868 0.3028686 4294967091
0.2426677 0.78221518 0.40245324 4281827000
0.23926659 0.78205436 0.39778769 4281827000
0.23701394 0.77962965 0.39365593 4281827000
0.21309403 0.784419 0.37000683 4281827000
0.17927657 0.71732682 0.35491547 4281827000
0.17666668 0.74300212 0.36056763 4281827000
0.25678211 0.78741294 0.43009076 4293138972
0.23263086 0.77970833 0.39251226 4281827000
0.17057957 0.71582615 0.35114956 4281827000
0.17083642 0.71140319 0.34582192 4281827000
0.15625903 0.7231338 0.33187819 4281827000
0.15443884 0.73112011 0.33727902 4281827000
0.13371927 0.73068237 0.2781451 4294967091
0.24332139 0.76824969 0.37650967 4281827000
0.22781767 0.77030194 0.37474927 4281827000
0.22107603 0.79708868 0.37949169 4281827000
0.21721737 0.77093619 0.37503082 4281827000
0.18713987 0.72150558 0.35794845 4281827000
0.18124296 0.71712691 0.35505816 4281827000
0.17945209 0.72313178 0.35911265 4281827000
0.17487857 0.71716374 0.35435709 4281827000
0.17428975 0.71911234 0.35526064 4281827000
0.17354998 0.72302783 0.35709429 4281827000
0.16143864 0.74017984 0.34806505 4281827000
0.15675849 0.73107702 0.34304848 4281827000
0.13710845 0.73049515 0.28400001 4294967091
0.13517816 0.7327745 0.28131396 4294967091
0.17012301 0.72816563 0.35537311 4281827000
0.16628225 0.74187416 0.35211205 4281827000
0.17487827 0.70634419 0.3317751 4281827000
0.14539823 0.72362089 0.30574381 4294967091
0.13409767 0.73170662 0.27928263 4294967091
0.24731766 0.78390014 0.41178045 4281827000
0.2314115 0.78191245 0.40666455 4281827000
0.17180577 0.74632066 0.35649902 4281827000
0.16660145 0.71678203 0.35068426 4281827000
0.15698074 0.7074886 0.33932763 4281827000
0.15826663 0.73411554 0.34459379 4281827000
0.14832686 0.72758424 0.3101564 4294967091
0.14702278 0.73530173 0.30810174 4294967091
0.14642274 0.73447186 0.30684751 4294967091
0.13211195 0.7302137 0.26884949 4294967091
0.26524153 0.78858066 0.42971426 4293138972
0.25730371 0.78393465 0.42196897 4281827000
0.25319472 0.78478098 0.4228642 4281827000
0.24817529 0.78395408 0.41429007 4281827000
0.2446394 0.7831046 0.40827236 4281827000
0.23666048 0.78146368 0.39513069 4281827000
0.22144923 0.77108389 0.37560037 4281827000
0.18865919 0.72836798 0.36204171 4281827000
0.18557878 0.72060269 0.3569909 4281827000
0.17977944 0.72128886 0.35805523 4281827000
0.17914972 0.74157047 0.36264694 4281827000
0.17263229 0.72682971 0.3571929 4281827000
0.17266934 0.71089751 0.34495038 4281827000
0.17021905 0.71436316 0.34988907 4281827000
0.16840804 0.71652669 0.35108659 4281827000
0.15591624 0.70722663 0.33782923 4281827000
0.15914047 0.7399236 0.34461278 4281827000
0.15639366 0.72939223 0.34222853 4281827000
0.14411786 0.70376992 0.32264793 4281827000
0.13913591 0.70349383 0.31896549 4281827000
0.14863014 0.72382009 0.30830169 4294967091
0.14645427 0.72256279 0.30643019 4294967091
0.1295947 0.70451498 0.3127985 4281827000
0.14226422 0.72883856 0.30185655 4294967091
0.13522536 0.73023468 0.27979922 4294967091
0.23557317 0.78468609 0.41673067 4281827000
0.23463924 0.78593367 0.41582942 4281827000
0.23017102 0.76265705 0.3662684 4281827000
0.22400297 0.76699102 0.36978287 4281827000
0.16896471 0.71732169 0.35229298 4281827000
0.17187805 0.70971358 0.34272951 4281827000
0.15778823 0.70987731 0.33957791 4281827000
0.15818569 0.72715622 0.34472257 4281827000
0.14594807 0.70369822 0.32382041 4281827000
0.15365714 0.73024523 0.32025161 4294967091
0.13971895 0.73251748 0.29392007 4294967091
0.1374239 0.72813278 0.28127816 4294967091
0.13671295 0.72661179 0.27536798 4294967091
0.13302803 0.72891158 0.26929089 4294967091
0.23156019 0.78230071 0.40837601 4281827000
0.21967989 0.79775113 0.37759393 4281827000
0.21788494 0.79542768 0.37530795 4281827000
0.16974346 0.73466885 0.35572982 4281827000
0.16765067 0.74359751 0.35351762 4281827000
0.15302636 0.73758477 0.32771182 4294967091
0.15412752 0.72429383 0.31054413 4294967091
0.13965918 0.73480886 0.29538161 4294967091
0.13821489 0.72933501 0.28324294 4294967091
0.13056669 0.7335754 0.27150202 4294967091
0.22916237 0.80122846 0.3972151 4281827000
0.16887645 0.73595369 0.35529926 4281827000
0.17628737 0.70653528 0.3371816 4281827000
0.15356143 0.73099881 0.326608 4294967091
0.15049802 0.72268665 0.30818808 4294967091
0.14043956 0.73337781 0.29593664 4294967091
0.24187379 0.77369231 0.38719708 4281827000
0.17564392 0.72585595 0.35876253 4281827000
0.15255442 0.7324695 0.32879287 4294967091
0.13589165 0.73136842 0.28288063 4294967091
0.17895815 0.70416009 0.33424601 4281827000
