# .PCD v0.7 - Point Cloud Data file format
VERSION 0.7
FIELDS x y z rgba
SIZE 4 4 4 4
TYPE F F F U
COUNT 1 1 1 1
WIDTH 1095
HEIGHT 1
VIEWPOINT 0 0 0 1 0 0 0
POINTS 1095
DATA ascii
0.24075015 0.8324399 0.34875146 4294967091
0.12913765 0.73135972 0.31560302 4294967091
0.13159104 0.73122203 0.31550235 4294967091
0.13439438 0.73093784 0.31573251 4294967091
0.13657586 0.73052418 0.31557408 4294967091
0.13188125 0.73030472 0.31355339 4294967091
0.1354295 0.729222 0.31332576 4294967091
0.13663681 0.72897863 0.31275946 4294967091
0.31235975 0.85646635 0.41535223 4293138972
0.31400096 0.85883635 0.41198611 4293138972
0.14627165 0.74210656 0.37208313 4281827000
0.27605385 0.85082746 0.38678724 4281827000
0.13489746 0.73587346 0.35437292 4281827000
0.2410914 0.83133352 0.36674833 4281827000
0.14034444 0.73827672 0.33879697 4294967091
0.22155164 0.82665759 0.34073713 4294967091
0.22466317 0.82471907 0.31961462 4294967091
0.2258887 0.82329154 0.31495154 4294967091
0.28846639 0.85689735 0.41357961 4293138972
0.15211967 0.74427295 0.37387702 4281827000
0.15105802 0.74547935 0.37341422 4281827000
0.25794506 0.84110975 0.37727016 4281827000
0.25846395 0.84100205 0.37464601 4281827000
0.13958651 0.73940009 0.34895629 4281827000
0.26005462 0.84206724 0.37299481 4281827000
0.26227614 0.84338486 0.37477535 4281827000
0.32101458 0.86047596 0.37779483 4293138972
0.25797755 0.83978307 0.3696692 4281827000
0.26007473 0.84229332 0.37147945 4281827000
0.26153201 0.84285027 0.37233478 4281827000
0.26092747 0.84249151 0.37038288 4281827000
0.25784123 0.84012282 0.36730036 4281827000
0.25963184 0.84190637 0.36845532 4281827000
0.26088166 0.84220171 0.36858723 4281827000
0.26254269 0.84256095 0.36855936 4281827000
0.24154815 0.83245075 0.36612806 4281827000
0.25883421 0.84125608 0.3665306 4281827000
0.26044255 0.84175438 0.36645964 4281827000
0.26200381 0.84205115 0.36699668 4281827000
0.26277652 0.84198308 0.36653566 4281827000
0.25706318 0.84047544 0.36554062 4281827000
0.25847235 0.84116185 0.3643558 4281827000
0.25991979 0.84151226 0.36414447 4281827000
0.26171967 0.84163773 0.36503157 4281827000
0.26334584 0.84192991 0.36527535 4281827000
0.25641051 0.83932221 0.36230776 4281827000
0.25769943 0.84107953 0.36333504 4281827000
0.2596111 0.84146357 0.36379614 4281827000
0.26119101 0.84140158 0.36358964 4281827000
0.26256013 0.84127939 0.36317423 4281827000
0.13802874 0.73673528 0.33461916 4294967091
0.24008419 0.83191252 0.36029974 4281827000
0.25826076 0.8403272 0.36084452 4281827000
0.1153949 0.72776872 0.32758772 4294967091
0.13635857 0.73466831 0.3269394 4294967091
0.23618466 0.83239025 0.35510629 4281827000
0.13932657 0.73133659 0.31802738 4294967091
0.13970309 0.72911578 0.31447253 4294967091
0.25664601 0.84054357 0.37627599 4281827000
0.25679868 0.84055346 0.37286732 4281827000
0.26304445 0.84329259 0.37111428 4281827000
0.1342667 0.73501116 0.33616692 4294967091
0.12645508 0.73145986 0.32059479 4294967091
0.1278961 0.73148489 0.31763175 4294967091
0.24673809 0.8298139 0.34148383 4294967091
0.27595153 0.8507508 0.39518264 4281827000
0.27714321 0.85084927 0.39478967 4281827000
0.27166533 0.84944665 0.39827132 4281827000
0.27339253 0.84958583 0.3923879 4281827000
0.31192166 0.86356401 0.39243728 4293138972
0.30681705 0.86125183 0.38428223 4293138972
0.30734283 0.86139238 0.3847743 4293138972
0.12073681 0.72890872 0.32756525 4294967091
0.13110146 0.7328074 0.32624072 4294967091
0.13430524 0.73404229 0.32648516 4294967091
0.12724778 0.73168182 0.32363248 4294967091
0.13005736 0.73239219 0.32410067 4294967091
0.13278958 0.7338962 0.32767487 4294967091
0.12864012 0.73205167 0.32247999 4294967091
0.13125674 0.73277134 0.32242849 4294967091
0.13697451 0.73315746 0.32116416 4294967091
0.1307867 0.73155743 0.31649885 4294967091
0.13803959 0.72892213 0.31349668 4294967091
0.22030556 0.82484663 0.34309343 4294967091
0.13824928 0.72800112 0.31159523 4294967091
0.13699365 0.72830963 0.31074724 4294967091
0.13921468 0.72765356 0.31059065 4294967091
0.29167303 0.85676003 0.40097076 4293138972
0.15216993 0.73741853 0.38385603 4281827000
0.15418437 0.73696357 0.3851862 4281827000
0.1558788 0.73762172 0.38640305 4281827000
0.27767381 0.85152662 0.39552212 4281827000
0.13978982 0.73630685 0.3721014 4281827000
0.14609481 0.74343085 0.36710224 4281827000
0.31223556 0.86059374 0.38061291 4293138972
0.25882199 0.84201753 0.37532413 4281827000
0.13772 0.73868024 0.3484776 4281827000
0.25859851 0.8413958 0.3734071 4281827000
0.25865647 0.84140813 0.37135392 4281827000
0.26483551 0.8437885 0.3723633 4281827000
0.25943056 0.8415097 0.36564991 4281827000
0.25868225 0.84080929 0.36276948 4281827000
0.3002266 0.86067784 0.40237477 4293138972
0.29350364 0.85781151 0.40078488 4293138972
0.30795375 0.86271143 0.39151579 4293138972
0.30614927 0.86076105 0.38259825 4293138972
0.27410337 0.84914607 0.37984172 4281827000
0.30521971 0.86058879 0.3803091 4293138972
0.3068426 0.86062121 0.37974289 4293138972
0.26518124 0.84397888 0.37466618 4281827000
0.25675607 0.8401196 0.37116972 4281827000
0.25697142 0.83952361 0.36875299 4281827000
0.26432043 0.8417663 0.36444792 4281827000
0.13942154 0.73671979 0.33137113 4294967091
0.14025395 0.73533285 0.32739323 4294967091
0.13983959 0.7344892 0.32478747 4294967091
0.13406183 0.72976017 0.31353402 4294967091
0.13537119 0.7273156 0.30971694 4294967091
0.31523421 0.85595661 0.41281962 4293138972
0.30808455 0.86343044 0.39900798 4293138972
0.28220993 0.85233778 0.38523453 4281827000
0.26182318 0.84333992 0.37905294 4281827000
0.30610263 0.86054128 0.37990758 4293138972
0.2634494 0.84334791 0.37139589 4281827000
0.25704944 0.83982491 0.36170882 4281827000
0.26317328 0.84159905 0.36304769 4281827000
0.32658818 0.86238986 0.40346703 4293138972
0.30521604 0.86241817 0.39587644 4293138972
0.30759135 0.86273098 0.39273319 4293138972
0.14995603 0.7435773 0.3728815 4281827000
0.3002868 0.85964304 0.3851552 4293138972
0.26459575 0.84397888 0.37637356 4281827000
0.26459166 0.84347373 0.37058994 4281827000
0.26417938 0.84278798 0.36872789 4281827000
0.32787704 0.86120188 0.37126577 4293138972
0.13695888 0.73536915 0.32918227 4294967091
0.11729714 0.72880822 0.3248975 4294967091
0.11981022 0.72937179 0.32500753 4294967091
0.32822028 0.86161768 0.40152949 4293138972
0.27839974 0.85062981 0.37888294 4281827000
0.31158569 0.86032665 0.3797996 4293138972
0.24459076 0.8333711 0.36101225 4281827000
0.120676 0.73002714 0.32275739 4294967091
0.13832255 0.73009658 0.31549868 4294967091
0.22461933 0.82494164 0.32156369 4294967091
0.10208065 0.70334005 0.26792008 4294967091
0.2259979 0.82185292 0.30961323 4294967091
0.27912521 0.85232598 0.39819056 4281827000
0.30722055 0.86279005 0.39370492 4293138972
0.31386942 0.86388338 0.3936035 4293138972
0.30598488 0.86253858 0.39373556 4293138972
0.30761892 0.86260074 0.39036575 4293138972
0.29945919 0.85974073 0.38768724 4293138972
0.13897191 0.73820978 0.35920101 4281827000
0.27986002 0.85117507 0.38292938 4281827000
0.30042949 0.86037707 0.38361821 4293138972
0.30339098 0.86041188 0.38260427 4293138972
0.27996114 0.85062969 0.37932178 4281827000
0.14242229 0.74135232 0.35365313 4281827000
0.11873847 0.72898042 0.32640457 4294967091
0.13910028 0.73313963 0.32116082 4294967091
0.22619721 0.82801187 0.34267482 4294967091
0.31648529 0.86207062 0.41369659 4293138972
0.29390636 0.85783607 0.40672287 4293138972
0.29297847 0.85757393 0.40512663 4293138972
0.2812241 0.85282403 0.39784572 4281827000
0.30901951 0.86362594 0.39884669 4293138972
0.14996745 0.74434102 0.37041464 4281827000
0.31324115 0.86274731 0.38845339 4293138972
0.26453987 0.84409302 0.3797237 4281827000
0.14209151 0.74080086 0.34982383 4281827000
0.26356301 0.84361273 0.37434894 4281827000
0.26189521 0.84111422 0.36207891 4281827000
0.22632585 0.82386929 0.3172645 4294967091
0.22685884 0.82222348 0.31059211 4294967091
0.31819347 0.8602581 0.41181776 4293138972
0.31918633 0.86144352 0.41138116 4293138972
0.30507907 0.86221343 0.39253858 4293138972
0.27020371 0.84744364 0.38482329 4281827000
0.26302245 0.84285653 0.36985567 4281827000
0.13785215 0.73615301 0.33132789 4294967091
0.12877235 0.73196745 0.32783973 4294967091
0.13198413 0.73337144 0.32835689 4294967091
0.13331936 0.73454857 0.33032969 4294967091
0.13480437 0.73475522 0.32899413 4294967091
0.3104257 0.86356008 0.39814493 4293138972
0.27449399 0.84968257 0.39080331 4281827000
0.30595791 0.86206484 0.38930589 4293138972
0.30856681 0.86218387 0.38761863 4293138972
0.34143829 0.86199176 0.38832033 4293138972
0.1359417 0.73558623 0.33171278 4294967091
0.1167241 0.72832984 0.32666543 4294967091
0.13878419 0.73562944 0.32851315 4294967091
0.21984312 0.82632273 0.33884656 4294967091
0.22248952 0.82466829 0.32494271 4294967091
0.2801373 0.85252512 0.39923704 4281827000
0.340352 0.8613295 0.39027092 4293138972
0.27578819 0.84970582 0.37814459 4281827000
0.26059502 0.84072125 0.36132196 4281827000
0.26303387 0.84113008 0.36049667 4281827000
0.13057426 0.73284578 0.32950038 4294967091
0.12157957 0.72932363 0.32624829 4294967091
0.13694093 0.73453742 0.32556453 4294967091
0.27686766 0.85134029 0.39749131 4281827000
0.14836118 0.74399382 0.36910319 4281827000
0.14016551 0.73938555 0.35579932 4281827000
0.27897823 0.85059017 0.3782551 4281827000
0.2436554 0.83349741 0.36740717 4281827000
0.13958912 0.738397 0.34082192 4294967091
0.24412787 0.83336723 0.36339894 4281827000
0.28099117 0.85301542 0.3999913 4293138972
0.32904091 0.861283 0.37496099 4293138972
0.13817643 0.73739815 0.34094676 4294967091
0.23725404 0.83057666 0.36276484 4281827000
0.13269573 0.73382288 0.33110151 4294967091
0.13563429 0.73604596 0.3355011 4294967091
0.12259265 0.72962964 0.32498303 4294967091
0.22272396 0.82526475 0.32735825 4294967091
0.2063134 0.81767333 0.31239948 4294967091
0.31571025 0.85063171 0.41604161 4293138972
0.29614803 0.85863429 0.399093 4293138972
0.29305851 0.85737085 0.39541611 4293138972
0.30181119 0.86030382 0.38515672 4293138972
0.13644685 0.73860562 0.3597717 4281827000
0.14189532 0.73437899 0.32457653 4294967091
0.29493546 0.85835594 0.40394613 4293138972
0.29834101 0.85945332 0.40228325 4293138972
0.29882476 0.85962349 0.40020949 4293138972
0.30223238 0.86120123 0.39313215 4293138972
0.30449063 0.86181474 0.3897481 4293138972
0.30586553 0.86055911 0.37723163 4293138972
0.136186 0.73866969 0.35278934 4281827000
0.26443106 0.8423751 0.3669408 4281827000
0.25895575 0.84077537 0.36135471 4281827000
0.2447359 0.83260465 0.34984663 4281827000
0.22411464 0.82501411 0.32319111 4294967091
0.29340348 0.85661447 0.40553349 4293138972
0.29621512 0.85879409 0.40388489 4293138972
0.29511955 0.85833168 0.40254843 4293138972
0.15029852 0.73326015 0.38678086 4281827000
0.15863878 0.7397067 0.38715518 4281827000
0.13973084 0.73841387 0.34405062 4294967091
0.25946742 0.84077317 0.36067066 4281827000
0.14318591 0.7337141 0.3235274 4294967091
0.14211936 0.73234838 0.32091856 4294967091
0.14070928 0.73069602 0.31762201 4294967091
0.31310591 0.85797882 0.41196933 4293138972
0.31866476 0.86502469 0.41137022 4293138972
0.30164459 0.86108309 0.38951099 4293138972
0.3023504 0.86114115 0.3888067 4293138972
0.26372591 0.84418398 0.38138309 4281827000
0.31051642 0.86034817 0.37910306 4293138972
0.13620858 0.72655904 0.30777165 4294967091
0.33189836 0.86234629 0.39887619 4293138972
0.33872694 0.86065584 0.39230067 4293138972
0.33641601 0.86292267 0.39311156 4293138972
0.20960332 0.81899095 0.31564644 4294967091
0.28911451 0.85658967 0.40478212 4293138972
0.29272607 0.85727799 0.39981389 4293138972
0.15391639 0.74534827 0.37541267 4281827000
0.13853773 0.73809367 0.35650653 4281827000
0.26338103 0.84383595 0.37850899 4281827000
0.31236494 0.86086971 0.38219485 4293138972
0.29490146 0.85764146 0.39727363 4293138972
0.29571971 0.85796255 0.39528331 4293138972
0.23900335 0.83014685 0.37150991 4281827000
0.28162968 0.78504616 0.26353359 4294967091
0.2752867 0.85014427 0.39384982 4281827000
0.30083907 0.86080265 0.39060366 4293138972
0.22304745 0.82725263 0.34225985 4294967091
0.1535584 0.73901939 0.38186213 4281827000
0.33494467 0.85912198 0.39677548 4293138972
0.14073938 0.73556566 0.37472636 4281827000
0.26378641 0.84410024 0.38303411 4281827000
0.2999886 0.8603133 0.38519135 4293138972
0.29957852 0.85980153 0.38361722 4293138972
0.30911475 0.86067069 0.38198042 4293138972
0.26186365 0.84063745 0.36050537 4281827000
0.2485183 0.8342694 0.35281411 4281827000
0.22774354 0.82287818 0.31424665 4294967091
0.31177145 0.86314356 0.39101681 4293138972
0.29059264 0.85694587 0.40585807 4293138972
0.32408562 0.86303526 0.40590206 4293138972
0.13815384 0.73441589 0.37271515 4281827000
0.27846625 0.8503378 0.37759003 4281827000
0.31436008 0.85621077 0.41453764 4293138972
0.15443441 0.73924327 0.38352239 4281827000
0.15769716 0.7396102 0.38431677 4281827000
0.15275028 0.7405318 0.38133213 4281827000
0.13629138 0.73306012 0.37254977 4281827000
0.13748136 0.73712999 0.35751483 4281827000
0.13776915 0.73767221 0.35491949 4281827000
0.26670873 0.84408724 0.37137118 4281827000
0.24550147 0.83338541 0.35895827 4281827000
0.21833728 0.82164419 0.31151578 4294967091
0.2134193 0.8194806 0.30731258 4294967091
0.31652611 0.85662681 0.41246209 4293138972
0.3160646 0.86099887 0.41381225 4293138972
0.29589033 0.85903746 0.40580583 4293138972
0.34188604 0.86141634 0.38936183 4293138972
0.24668358 0.83368313 0.35809338 4281827000
0.14163919 0.73636025 0.32909495 4294967091
0.24704207 0.83423054 0.35737252 4281827000
0.13095215 0.7321499 0.3203868 4294967091
0.31364962 0.85484517 0.4163456 4293138972
0.31670916 0.8638019 0.41514257 4293138972
0.29599315 0.85767448 0.39956775 4293138972
0.15585361 0.74006552 0.38436186 4281827000
0.14477709 0.74253249 0.36511272 4281827000
0.29936719 0.85947841 0.3858346 4293138972
0.2544423 0.83894229 0.37861648 4281827000
0.13310489 0.73510236 0.35974717 4281827000
0.1415574 0.73729587 0.33354035 4294967091
0.22699273 0.82323468 0.31563833 4294967091
0.28059906 0.78487283 0.26508659 4294967091
0.25703016 0.8402257 0.379554 4281827000
0.14126045 0.73639399 0.33079457 4294967091
0.26958814 0.78640121 0.29729378 4294967091
0.28266975 0.85405529 0.40528604 4293138972
0.33693406 0.8610245 0.39395577 4293138972
0.34148952 0.86271471 0.38635018 4293138972
0.13305677 0.73416913 0.35561296 4281827000
0.31453699 0.84992343 0.41620582 4293138972
0.16629589 0.75629604 0.37466255 4281827000
0.16376574 0.75428903 0.37092307 4281827000
0.21839689 0.81898427 0.35500181 4281827000
0.10451488 0.70381826 0.27194792 4294967091
0.31550556 0.86012256 0.41232452 4293138972
0.28187504 0.85325927 0.40337178 4293138972
0.31286028 0.86335087 0.39186206 4293138972
0.34038439 0.8617422 0.39180547 4293138972
0.3082141 0.86223942 0.39056253 4293138972
0.30479556 0.86126763 0.38847575 4293138972
0.12055316 0.72999066 0.32181758 4294967091
0.12999968 0.73184872 0.32048157 4294967091
0.30563387 0.86418194 0.41536701 4293138972
0.33642614 0.86086929 0.39533091 4293138972
0.12609662 0.73038882 0.33836329 4294967091
0.28197306 0.85358214 0.39950627 4293138972
0.13821369 0.73702848 0.33839414 4294967091
0.11003648 0.70809305 0.28846225 4294967091
0.29487994 0.85823721 0.40509978 4293138972
0.12969141 0.73115194 0.31865388 4294967091
0.27438563 0.84939778 0.39217889 4281827000
0.28325343 0.85447639 0.40226924 4293138972
0.17270993 0.76639831 0.36872363 4281827000
0.23995832 0.83144438 0.37136462 4281827000
0.31502458 0.8636266 0.39352158 4293138972
0.29378489 0.85755545 0.40960526 4293138972
0.14984335 0.74569482 0.36931023 4281827000
0.17302594 0.76791847 0.36652574 4281827000
0.2576412 0.84065247 0.3719196 4281827000
0.13874203 0.7355572 0.37054235 4281827000
0.13501175 0.73170209 0.37088308 4281827000
0.26500049 0.84399199 0.37800789 4281827000
0.32447994 0.86070806 0.37882292 4293138972
0.13290234 0.73313189 0.32481247 4294967091
0.16514033 0.75813955 0.3678408 4281827000
0.31214753 0.85462785 0.41670793 4293138972
0.13183419 0.73259258 0.32396567 4294967091
0.27797323 0.85175985 0.40036017 4281827000
0.14520147 0.73486382 0.38119102 4281827000
0.15371569 0.74254501 0.38028416 4281827000
0.29189894 0.85645795 0.39510512 4293138972
0.15436578 0.74446589 0.37931955 4281827000
0.29015017 0.85575318 0.39426214 4293138972
0.29074657 0.8561635 0.39201742 4293138972
0.13857572 0.73671842 0.36924484 4281827000
0.28421322 0.85310066 0.38734287 4281827000
0.13720806 0.7371918 0.35096213 4281827000
0.30810943 0.86529452 0.42693099 4293138972
0.28823367 0.85665637 0.40669736 4293138972
0.29994351 0.86043024 0.4066118 4293138972
0.29862356 0.85967851 0.40419304 4293138972
0.27306241 0.84938312 0.39695302 4281827000
0.29150391 0.85650343 0.39699334 4293138972
0.3017565 0.86068618 0.39741102 4293138972
0.27281505 0.84919083 0.39472127 4281827000
0.30862546 0.86299658 0.39644828 4293138972
0.13865805 0.73319703 0.37508628 4281827000
0.27290398 0.84982473 0.3924275 4281827000
0.31156221 0.8634513 0.39464229 4293138972
0.27309951 0.84878582 0.39108363 4281827000
0.29365933 0.85714895 0.39284495 4293138972
0.26930976 0.84704292 0.38919833 4281827000
0.13861857 0.73704123 0.36708695 4281827000
0.13698576 0.73610783 0.36571509 4281827000
0.13632482 0.73672962 0.36197743 4281827000
0.26078108 0.84265971 0.3813993 4281827000
0.25412187 0.8381936 0.38014111 4281827000
0.26107082 0.84273863 0.37981236 4281827000
0.25462416 0.83863342 0.37740472 4281827000
0.25436652 0.83831829 0.37550986 4281827000
0.25526884 0.83916605 0.37574553 4281827000
0.24816847 0.83613825 0.3782495 4281827000
0.25651565 0.8398574 0.37415123 4281827000
0.25490358 0.83925241 0.37364402 4281827000
0.25314254 0.83851147 0.37201741 4281827000
0.13831243 0.7376616 0.34506872 4294967091
0.25499555 0.83859897 0.36872256 4281827000
0.13763514 0.73718834 0.34299067 4294967091
0.23620448 0.83004403 0.36547497 4281827000
0.1401899 0.73732811 0.3351621 4294967091
0.13002729 0.73185438 0.32228968 4294967091
0.21673965 0.81847292 0.34786698 4281827000
0.21752226 0.8199116 0.34691727 4294967091
0.21818943 0.82151377 0.34763452 4294967091
0.22551018 0.82774878 0.34926838 4294967091
0.22570142 0.82744139 0.34666321 4294967091
0.21942519 0.82567209 0.34200764 4294967091
0.25086302 0.82854855 0.34044638 4281827000
0.1051356 0.70733964 0.28641173 4294967091
0.2916103 0.85542071 0.40829596 4293138972
0.2960363 0.85878956 0.40743324 4293138972
0.14802535 0.73169041 0.38693726 4281827000
0.31588957 0.8635599 0.40317893 4293138972
0.28149909 0.85245204 0.38842848 4281827000
0.13404731 0.73549443 0.36246398 4281827000
0.2514641 0.83717126 0.38335246 4281827000
0.2590422 0.84179044 0.38163465 4281827000
0.25075215 0.83716387 0.38180432 4281827000
0.25066018 0.83708066 0.37847415 4281827000
0.13515598 0.7360127 0.35214114 4281827000
0.25221741 0.83795422 0.37253827 4281827000
0.25501302 0.83789343 0.36913973 4281827000
0.21926843 0.81938022 0.35734093 4281827000
0.12945729 0.73240632 0.33146167 4294967091
0.21735284 0.81776518 0.35520703 4281827000
0.12643667 0.7303828 0.32769939 4294967091
0.21732871 0.81835639 0.35315341 4281827000
0.24441591 0.83238298 0.34759128 4281827000
0.10079312 0.703794 0.26329681 4294967091
0.2863681 0.85536695 0.4040564 4293138972
0.27752411 0.85126269 0.40291029 4281827000
0.32878205 0.85994941 0.40330502 4293138972
0.14414622 0.73166549 0.38502622 4281827000
0.31293556 0.86429727 0.39719519 4293138972
0.23315464 0.82805032 0.37371635 4281827000
0.31662104 0.86007017 0.37783933 4293138972
0.23605889 0.82799733 0.37087813 4281827000
0.25314516 0.83739781 0.36878738 4281827000
0.13901195 0.73738426 0.33668733 4294967091
0.13113841 0.7334891 0.33351645 4294967091
0.11826862 0.72823536 0.32939819 4294967091
0.21566837 0.81764227 0.35174802 4281827000
0.12694159 0.73054045 0.32607684 4294967091
0.12877008 0.73167515 0.32100931 4294967091
0.21334346 0.82136959 0.30682912 4294967091
0.21281044 0.81886148 0.30274752 4294967091
0.2789548 0.78481019 0.26662081 4294967091
0.15016516 0.74011582 0.37913495 4281827000
0.1548622 0.74164397 0.38151205 4281827000
0.16602619 0.75128686 0.3798236 4281827000
0.31144413 0.86372262 0.39632976 4293138972
0.16665581 0.75261223 0.37789667 4281827000
0.16830868 0.75384915 0.37849411 4281827000
0.315092 0.86358136 0.39507812 4293138972
0.16456977 0.7535404 0.37548947 4281827000
0.16532305 0.75391692 0.37774327 4281827000
0.16360351 0.7530815 0.37258056 4281827000
0.16488934 0.75490487 0.37366977 4281827000
0.16090794 0.75274438 0.37091666 4281827000
0.16596426 0.75626439 0.37127554 4281827000
0.16399686 0.75593013 0.36990318 4281827000
0.32071492 0.86085522 0.38314506 4293138972
0.25260407 0.8375631 0.37424409 4281827000
0.32618877 0.86072439 0.37680539 4293138972
0.26544836 0.84337366 0.37053302 4281827000
0.12508157 0.72890502 0.32733718 4294967091
0.21485722 0.81707948 0.34902415 4281827000
0.10699341 0.70753253 0.28893521 4294967091
0.21247493 0.81869447 0.30451664 4294967091
0.27829531 0.78446233 0.26826361 4294967091
0.2990219 0.86027676 0.40887579 4293138972
0.26831278 0.84648442 0.4022778 4281827000
0.27561 0.85080904 0.40053871 4281827000
0.31347215 0.86063886 0.38165942 4293138972
0.21707529 0.81570154 0.36078507 4281827000
0.21394658 0.81484318 0.35994118 4281827000
0.12747261 0.73098779 0.32985196 4294967091
0.2280041 0.82648975 0.32741982 4294967091
0.27849498 0.78415304 0.26976129 4294967091
0.21366858 0.81444663 0.3506169 4281827000
0.2478126 0.82994545 0.34226754 4294967091
0.14757766 0.73330647 0.38430816 4281827000
0.3119258 0.86378103 0.3972173 4293138972
0.29240659 0.856839 0.39361778 4293138972
0.1316389 0.73102814 0.36323312 4281827000
0.12931137 0.73234558 0.333399 4294967091
0.1262646 0.73119253 0.33417645 4294967091
0.13639365 0.73355174 0.3228727 4294967091
0.14266448 0.73175323 0.31867832 4294967091
0.14151627 0.73002273 0.31555638 4294967091
0.2108354 0.81817293 0.3071543 4294967091
0.21111335 0.81775463 0.30484217 4294967091
0.2799466 0.85156459 0.40434551 4293138972
0.28520894 0.85515553 0.40265626 4293138972
0.28232911 0.85328901 0.3982265 4293138972
0.31474954 0.86450994 0.39690956 4293138972
0.26214501 0.84325582 0.38790575 4281827000
0.13364545 0.73443002 0.35227612 4281827000
0.13790746 0.73760974 0.34939715 4281827000
0.13626838 0.73604059 0.34083956 4294967091
0.20976663 0.81741506 0.31760308 4294967091
0.20880094 0.81873959 0.30603865 4294967091
0.27975303 0.85110199 0.40536749 4293138972
0.15910634 0.74998647 0.37556881 4281827000
0.16076325 0.75429028 0.36851352 4281827000
0.16349623 0.75639927 0.36774978 4281827000
0.14551884 0.74343085 0.36286068 4281827000
0.16255538 0.75594252 0.36606237 4281827000
0.16057107 0.75487441 0.36174676 4281827000
0.16082756 0.75669497 0.35950217 4281827000
0.16084048 0.7566269 0.35672414 4281827000
0.21970794 0.81298399 0.37334555 4281827000
0.31630182 0.86012417 0.38001961 4293138972
0.21860573 0.81349099 0.36472067 4281827000
0.12706621 0.73042357 0.33441386 4294967091
0.21590197 0.81523836 0.35794058 4281827000
0.12615651 0.73012865 0.33109063 4294967091
0.21259913 0.8127889 0.35467276 4281827000
0.21321391 0.81392956 0.35372928 4281827000
0.30981553 0.86614883 0.42805606 4293138972
0.14676875 0.73837596 0.38058499 4281827000
0.147422 0.74036556 0.3773717 4281827000
0.16788323 0.75575674 0.37621927 4281827000
0.29401776 0.85732496 0.39428338 4293138972
0.34031337 0.86392212 0.38805744 4293138972
0.32154098 0.86067975 0.38131389 4293138972
0.24320965 0.83236253 0.36957848 4281827000
0.1250876 0.72881472 0.33467719 4294967091
0.12488592 0.72902125 0.33157727 4294967091
0.12437151 0.72906911 0.32948604 4294967091
0.14257884 0.73522031 0.32696033 4294967091
0.25007591 0.83436257 0.35177276 4281827000
0.2103643 0.81755781 0.30396634 4294967091
0.21095653 0.81753647 0.30257821 4294967091
0.28788742 0.85612649 0.40901145 4293138972
0.29902029 0.85982925 0.39412776 4293138972
0.1441444 0.74244958 0.36112088 4281827000
0.21423462 0.81955665 0.30461612 4294967091
0.33161005 0.8579188 0.40220371 4293138972
0.15903741 0.74242991 0.38580933 4281827000
0.14573164 0.73674101 0.37944344 4281827000
0.24354914 0.8323496 0.37276059 4281827000
0.13280544 0.7342369 0.33771375 4294967091
0.12261508 0.72814691 0.32877383 4294967091
0.23664331 0.83038944 0.36062229 4281827000
0.2175927 0.81911713 0.35208929 4281827000
0.2840029 0.85403138 0.40057829 4293138972
0.28553754 0.85486126 0.4001604 4293138972
0.16727543 0.76046568 0.36869541 4281827000
0.17322366 0.76559716 0.37077385 4281827000
0.17106993 0.76462364 0.3691189 4281827000
0.17119376 0.7661109 0.36731887 4281827000
0.17050312 0.76569575 0.36489081 4281827000
0.32599759 0.8610093 0.37860063 4293138972
0.12142786 0.72983432 0.3437748 4294967091
0.12523855 0.72928685 0.33309722 4294967091
0.12140191 0.72786659 0.33056045 4294967091
0.12347197 0.72764647 0.32979172 4294967091
0.28046358 0.78487003 0.26628634 4294967091
0.28282243 0.84206045 0.42197356 4293138972
0.30787516 0.86550128 0.42454073 4293138972
0.1531041 0.73240399 0.3866871 4281827000
0.14486828 0.73742259 0.37841758 4281827000
0.16070971 0.7550146 0.36451536 4281827000
0.28540277 0.85339105 0.38652539 4281827000
0.13631521 0.73624796 0.34375435 4294967091
0.21721937 0.82206881 0.34593326 4294967091
0.14254825 0.73564386 0.37715679 4281827000
0.2741836 0.84864199 0.39764944 4281827000
0.29117748 0.85619432 0.39412227 4293138972
0.17027672 0.7597279 0.37241441 4281827000
0.29039559 0.85596377 0.39278027 4293138972
0.15951656 0.75253046 0.36800539 4281827000
0.28313541 0.85293943 0.38689473 4281827000
0.1713102 0.76768869 0.36347112 4281827000
0.31455913 0.86095005 0.38305879 4293138972
0.21201007 0.81989986 0.32325724 4294967091
0.28848705 0.85509503 0.39689171 4293138972
0.15622619 0.74604833 0.37806842 4281827000
0.28671134 0.85419732 0.39036709 4293138972
0.28896767 0.85500139 0.39042756 4293138972
0.1552432 0.74983692 0.3687278 4281827000
0.16167051 0.75692362 0.36382955 4281827000
0.16170371 0.75687653 0.36092791 4281827000
0.24873628 0.83480328 0.35539272 4281827000
0.24983628 0.8296504 0.34329918 4281827000
0.15643692 0.74420244 0.3793242 4281827000
0.16845617 0.75904316 0.37156871 4281827000
0.24031729 0.8301087 0.37670922 4281827000
0.2446866 0.83346379 0.36875871 4281827000
0.2449867 0.83207422 0.34585133 4294967091
0.2857962 0.8485924 0.42050532 4293138972
0.15883338 0.73690212 0.38977334 4281827000
0.15646698 0.74373412 0.38272017 4281827000
0.15734099 0.74836159 0.37383705 4281827000
0.1470243 0.74440271 0.3640615 4281827000
0.1433766 0.74156344 0.358347 4281827000
0.14541936 0.74356377 0.35995707 4281827000
0.14902364 0.7452749 0.36005488 4281827000
0.23781279 0.8288663 0.37927905 4281827000
0.30982754 0.86606449 0.42308235 4293138972
0.15422662 0.74628621 0.37269184 4281827000
0.26326162 0.84409642 0.38517982 4281827000
0.14341639 0.74262387 0.35907054 4281827000
0.16945823 0.76559329 0.363188 4281827000
0.15967932 0.7539658 0.35413557 4281827000
0.17034377 0.76760012 0.36126435 4281827000
0.14294845 0.73992032 0.34333435 4281827000
0.14268455 0.73853093 0.33704087 4294967091
0.12703992 0.73022723 0.31865171 4294967091
0.22620904 0.8249414 0.32075608 4294967091
0.16451597 0.75888228 0.36514401 4281827000
0.1631512 0.75763297 0.36449343 4281827000
0.16627631 0.76032346 0.36608395 4281827000
0.16822767 0.76270455 0.36646435 4281827000
0.16656679 0.76145184 0.36368465 4281827000
0.1690926 0.76381618 0.36370423 4281827000
0.3147555 0.86046618 0.38058764 4293138972
0.12278152 0.72908437 0.32779676 4294967091
0.27712086 0.7842176 0.2704697 4294967091
0.31992006 0.86390299 0.41223636 4293138972
0.34036335 0.86125195 0.39305902 4293138972
0.31627908 0.86068636 0.38186064 4293138972
0.13660038 0.73610276 0.33860677 4294967091
0.1324463 0.73199499 0.31924087 4294967091
0.11105329 0.70824152 0.29037482 4294967091
0.1076454 0.7071594 0.29019484 4294967091
0.28168404 0.78530228 0.26707911 4294967091
0.28276443 0.78532237 0.264999 4294967091
0.27643669 0.85067195 0.38724416 4281827000
0.23725736 0.82705897 0.37957025 4281827000
0.31143287 0.86189264 0.38588285 4293138972
0.14474282 0.74217141 0.35229069 4281827000
0.17023687 0.76875156 0.36002111 4281827000
0.23028637 0.82358176 0.37635729 4281827000
0.17228669 0.77027154 0.35659686 4281827000
0.22388518 0.82523835 0.35452214 4281827000
0.22442752 0.82613868 0.35269925 4281827000
0.22493146 0.82732958 0.35229486 4294967091
0.30966511 0.86566532 0.42497152 4293138972
0.30721551 0.86441022 0.4237746 4293138972
0.33122712 0.85860389 0.40078264 4293138972
0.238029 0.82771319 0.37680706 4281827000
0.21883516 0.81451237 0.37129775 4281827000
0.22068231 0.81474781 0.3728328 4281827000
0.21691681 0.81374437 0.3679609 4281827000
0.21997753 0.81508034 0.36775416 4281827000
0.21772827 0.81479353 0.36567572 4281827000
0.21910422 0.81588233 0.36639291 4281827000
0.18978794 0.7882033 0.35495713 4281827000
0.18745774 0.78688496 0.35156235 4281827000
0.18900953 0.78793293 0.3518196 4281827000
0.18859166 0.78765708 0.34925315 4281827000
0.18896641 0.78830004 0.3498306 4281827000
0.19210824 0.79028177 0.35026136 4281827000
0.18005487 0.78068447 0.34549186 4281827000
0.18208647 0.78218687 0.34583232 4281827000
0.18829645 0.78720909 0.34569576 4281827000
0.18722181 0.78666645 0.34678262 4281827000
0.18307449 0.78300864 0.34403962 4281827000
0.18490626 0.78457099 0.34372807 4281827000
0.18228307 0.78210932 0.34004018 4281827000
0.1850356 0.78481972 0.34166861 4281827000
0.18028007 0.77977341 0.33828282 4281827000
0.18276298 0.78292304 0.33871704 4281827000
0.1846078 0.78428137 0.33921549 4281827000
0.18699673 0.78532189 0.3380667 4281827000
0.18894953 0.78628534 0.33603394 4281827000
0.18167315 0.78289682 0.3323544 4281827000
0.19991209 0.80641222 0.26852512 4294967091
0.23084585 0.82125807 0.38080773 4281827000
0.34377906 0.86254913 0.38728097 4293138972
0.17258333 0.76976472 0.36276355 4281827000
0.23585932 0.82660794 0.37746227 4281827000
0.31204924 0.86155397 0.38467205 4293138972
0.31344494 0.86174083 0.38548729 4293138972
0.34286454 0.86377448 0.38631186 4293138972
0.31701505 0.86123472 0.38348192 4293138972
0.31869823 0.86088246 0.38296989 4293138972
0.16982649 0.76890838 0.35729507 4281827000
0.17001043 0.7684564 0.35298482 4281827000
0.10519378 0.70762473 0.28858721 4294967091
0.30797416 0.86496544 0.41852012 4293138972
0.15748572 0.73437822 0.38948566 4281827000
0.27618006 0.84806478 0.40514788 4281827000
0.27666995 0.85019821 0.40236285 4281827000
0.15516156 0.7480942 0.3725898 4281827000
0.15802521 0.74986118 0.37219438 4281827000
0.15874849 0.75299662 0.36380503 4281827000
0.16357441 0.75848621 0.36176977 4281827000
0.18390134 0.78059155 0.36366373 4281827000
0.18134321 0.77998924 0.36142007 4281827000
0.18325366 0.78103691 0.36181128 4281827000
0.18550755 0.78208494 0.36171433 4281827000
0.18501396 0.78310877 0.36012784 4281827000
0.18381521 0.78366506 0.35603043 4281827000
0.14105992 0.73783255 0.33668429 4294967091
0.18637885 0.78578979 0.35427135 4281827000
0.18647905 0.78545552 0.34947076 4281827000
0.18737948 0.78676623 0.34366795 4281827000
0.18771054 0.78625774 0.34055448 4281827000
0.2254537 0.82622182 0.32626534 4294967091
0.15261549 0.74597061 0.37080064 4281827000
0.23361462 0.82200801 0.38256186 4281827000
0.23725323 0.82787198 0.37491003 4281827000
0.18146898 0.78020805 0.35896432 4281827000
0.18281354 0.78164369 0.35888287 4281827000
0.23603614 0.82830745 0.37359694 4281827000
0.18231314 0.78166628 0.35710472 4281827000
0.18256408 0.78226757 0.35446787 4281827000
0.18380523 0.78323799 0.3524234 4281827000
0.18978436 0.78876793 0.34603816 4281827000
0.18897668 0.78784227 0.34341693 4281827000
0.19180919 0.7907306 0.34746778 4281827000
0.22208127 0.82319891 0.35568759 4281827000
0.22455654 0.82487071 0.35701931 4281827000
0.19023141 0.78812045 0.34199512 4281827000
0.18952079 0.78717238 0.33916423 4281827000
0.19091876 0.78783947 0.33968818 4281827000
0.2508156 0.83549249 0.35393989 4281827000
0.27023131 0.84708589 0.40700307 4281827000
0.27307472 0.8484056 0.40488222 4281827000
0.15749389 0.75084317 0.36866492 4281827000
0.14790885 0.7449652 0.36691365 4281827000
0.14505452 0.74276859 0.354794 4281827000
0.23095207 0.82209772 0.3786613 4281827000
0.23508993 0.82437408 0.37805909 4281827000
0.31240019 0.86197931 0.38657436 4293138972
0.23226562 0.82363373 0.37766758 4281827000
0.14588971 0.74198508 0.34747118 4281827000
0.23514466 0.82694685 0.37285841 4281827000
0.1203032 0.72823751 0.32919753 4294967091
0.19788441 0.80445921 0.26002339 4294967091
0.33493057 0.85900509 0.39903021 4293138972
0.23953278 0.82615554 0.38406014 4281827000
0.31441477 0.86234999 0.38772672 4293138972
0.23396662 0.8247003 0.37587279 4281827000
0.31497285 0.8618713 0.3856692 4293138972
0.31660753 0.86160326 0.38494691 4293138972
0.1446491 0.74187922 0.34903723 4281827000
0.21531603 0.81336594 0.36518332 4281827000
0.21740016 0.81551516 0.36280039 4281827000
0.20988943 0.81700122 0.30486211 4294967091
0.31427237 0.85435456 0.41859469 4293138972
0.31739444 0.85627639 0.41460356 4293138972
0.29628757 0.85842407 0.39494807 4293138972
0.18900084 0.78330576 0.36938497 4281827000
0.18873949 0.78309703 0.36490214 4281827000
0.1837759 0.78311479 0.35151279 4281827000
0.19177473 0.79041517 0.35379374 4281827000
0.18127844 0.78195202 0.34325168 4281827000
0.27992699 0.7850281 0.26942906 4294967091
0.30999908 0.86570734 0.43071479 4293138972
0.14014907 0.7316075 0.37847546 4281827000
0.30046806 0.86059827 0.40457362 4293138972
0.28403905 0.85381657 0.3938483 4293138972
0.15842853 0.75355089 0.36187145 4281827000
0.22976796 0.81997639 0.37951148 4281827000
0.18524724 0.7803455 0.3666243 4281827000
0.19218192 0.78624052 0.36682156 4281827000
0.16180885 0.75804329 0.3536478 4281827000
0.19251172 0.78820747 0.3664214 4281827000
0.16797748 0.76698101 0.3591778 4281827000
0.18194318 0.78000069 0.35611191 4281827000
0.18880047 0.78598076 0.36084729 4281827000
0.24413386 0.83341122 0.37133363 4281827000
0.18086702 0.78082389 0.35287386 4281827000
0.21550499 0.81451803 0.35957536 4281827000
0.18017781 0.77925909 0.34068277 4281827000
0.18859325 0.78624403 0.33821842 4281827000
0.19086641 0.7874155 0.33741507 4281827000
0.1861088 0.78543639 0.33216467 4281827000
0.20904657 0.81632257 0.30490217 4294967091
0.20898362 0.81658947 0.30308068 4294967091
0.31052065 0.86663193 0.42654273 4293138972
0.3193 0.86201131 0.41369426 4293138972
0.26440507 0.84450573 0.38830039 4281827000
0.14409235 0.74113053 0.34686702 4281827000
0.17933239 0.77992141 0.35364878 4281827000
0.18027407 0.7800706 0.35026065 4281827000
0.19263756 0.79149675 0.35691556 4281827000
0.17967361 0.77971023 0.34799534 4281827000
0.24634904 0.83430701 0.36386544 4281827000
0.22434331 0.82328242 0.35803819 4281827000
0.2868388 0.84485805 0.42773736 4293138972
0.28374058 0.84344953 0.42499673 4293138972
0.29289174 0.84519315 0.42263621 4293138972
0.29321712 0.8450439 0.42087093 4293138972
0.28203925 0.84800625 0.42369014 4293138972
0.1539887 0.74767393 0.3698827 4281827000
0.17609644 0.7687031 0.37074646 4281827000
0.28680342 0.85411823 0.38960794 4293138972
0.18815286 0.78196192 0.36724827 4281827000
0.17990381 0.77917564 0.35284698 4281827000
0.183254 0.78131115 0.34730384 4281827000
0.1777197 0.7774381 0.34714532 4281827000
0.2234183 0.82211912 0.35938972 4281827000
0.2252828 0.82548201 0.35967076 4281827000
0.29805878 0.84724569 0.42364299 4293138972
0.30002481 0.84786755 0.42299199 4293138972
0.33144864 0.85988986 0.39764744 4293138972
0.15166223 0.74727166 0.36436176 4281827000
0.14689194 0.74408555 0.35569859 4281827000
0.15957385 0.75500548 0.36009362 4281827000
0.16480811 0.76017654 0.36318693 4281827000
0.17203726 0.76802087 0.36503977 4281827000
0.16336636 0.75950116 0.36054301 4281827000
0.1649562 0.76096064 0.36023316 4281827000
0.16747893 0.76373053 0.36156768 4281827000
0.16400041 0.76020163 0.35760337 4281827000
0.16543725 0.76181901 0.35772899 4281827000
0.16357869 0.75998372 0.35461807 4281827000
0.16645761 0.76364547 0.35704193 4281827000
0.18630698 0.78223002 0.36463356 4281827000
0.1848969 0.78337002 0.35795489 4281827000
0.22060852 0.81680417 0.36855802 4281827000
0.19301187 0.79057777 0.34745637 4281827000
0.22522074 0.82638818 0.35715601 4281827000
0.18768898 0.78542852 0.33633789 4281827000
0.18347049 0.78399706 0.33283517 4281827000
0.28665712 0.84375823 0.42550701 4293138972
0.139898 0.73315167 0.37678126 4281827000
0.28558141 0.85430765 0.3941505 4293138972
0.1868494 0.77997786 0.36850223 4281827000
0.16106771 0.75674236 0.35500389 4281827000
0.21884809 0.81707549 0.36255261 4281827000
0.2203321 0.81944698 0.36075613 4281827000
0.24702004 0.83473372 0.3616192 4281827000
0.21246341 0.81344879 0.34938833 4281827000
0.31042573 0.86661911 0.42810941 4293138972
0.31165016 0.8666271 0.42560098 4293138972
0.28330129 0.85295582 0.38712212 4281827000
0.17864242 0.77914971 0.34626982 4281827000
0.26632011 0.84343904 0.36937535 4281827000
0.21125139 0.8107515 0.35769916 4281827000
0.24781303 0.8347798 0.35965541 4281827000
0.21765138 0.82003289 0.34485355 4294967091
0.27944654 0.78498685 0.27098939 4294967091
0.31069469 0.86667418 0.4299784 4293138972
0.17608656 0.76657683 0.37401336 4281827000
0.17802379 0.76872957 0.37313125 4281827000
0.22144514 0.80885208 0.38123354 4281827000
0.21955794 0.80995816 0.3805747 4281827000
0.19013084 0.78204441 0.37077081 4281827000
0.22724788 0.81617469 0.38213825 4281827000
0.23092271 0.81974691 0.38258281 4281827000
0.15817562 0.75393742 0.35851187 4281827000
0.22110921 0.81841791 0.36456802 4281827000
0.1775869 0.77740878 0.34949914 4281827000
0.21336547 0.81162077 0.3599005 4281827000
0.22069094 0.81832588 0.36240077 4281827000
0.17779273 0.77742934 0.34341252 4281827000
0.22315374 0.82125932 0.36123803 4281827000
0.18623495 0.78484118 0.33951998 4281827000
0.29862967 0.85095793 0.42978224 4293138972
0.29958755 0.8479327 0.42505658 4293138972
0.22137754 0.80895329 0.38431647 4281827000
0.26695037 0.84425521 0.37317133 4281827000
0.24484381 0.83297664 0.36692265 4281827000
0.22649482 0.82533556 0.31976333 4294967091
0.27804834 0.8506313 0.41185629 4293138972
0.13334559 0.73276836 0.36657995 4281827000
0.21878377 0.81117022 0.37610921 4281827000
0.22030877 0.81253505 0.37661099 4281827000
0.17149913 0.77005351 0.36123139 4281827000
0.14369586 0.73831332 0.33549765 4294967091
0.1785599 0.77747577 0.34078777 4281827000
0.28727859 0.85567117 0.41132617 4293138972
0.27870676 0.85024369 0.40873122 4293138972
0.13606383 0.72834438 0.37888482 4281827000
0.17661919 0.76722497 0.37069133 4281827000
0.19098389 0.78151447 0.37251687 4281827000
0.22211073 0.8139677 0.37530571 4281827000
0.26621386 0.84522581 0.38401273 4281827000
0.26637027 0.84497797 0.38076344 4281827000
0.2672796 0.84583724 0.38240507 4281827000
0.17215753 0.77187204 0.35721216 4281827000
0.17563717 0.77446663 0.35697693 4281827000
0.1760378 0.77506709 0.35456276 4281827000
0.17617802 0.77611637 0.3536087 4281827000
0.17540449 0.77534068 0.35017756 4281827000
0.21792041 0.81669736 0.36054105 4281827000
0.19369127 0.79159284 0.35093221 4281827000
0.19472253 0.79201037 0.34760222 4281827000
0.19446997 0.79071134 0.34345227 4281827000
0.13857745 0.73088658 0.37722412 4281827000
0.136968 0.73090166 0.37512916 4281827000
0.1725096 0.77228391 0.35477686 4281827000
0.11917668 0.72804421 0.3405979 4294967091
0.2844364 0.84633279 0.42408228 4293138972
0.31328052 0.86327398 0.41817272 4293138972
0.27027136 0.84604549 0.410546 4281827000
0.16987102 0.75578105 0.37581962 4281827000
0.15118337 0.74675441 0.36691087 4281827000
0.17650534 0.77008796 0.36750567 4281827000
0.15872642 0.75587779 0.35684794 4281827000
0.16127326 0.75709414 0.35169071 4281827000
0.17141822 0.77037376 0.35430536 4281827000
0.26804277 0.8450262 0.37662461 4281827000
0.12731671 0.73042887 0.32105348 4294967091
0.17909053 0.77090579 0.37259692 4281827000
0.22293921 0.81127435 0.38147262 4281827000
0.34223878 0.86160892 0.39211687 4293138972
0.26559862 0.84435427 0.37897718 4281827000
0.19414578 0.7908619 0.35945237 4281827000
0.1930885 0.79065645 0.35858741 4281827000
0.12644702 0.72624022 0.31827649 4294967091
0.11767754 0.7174679 0.30712327 4294967091
0.2741769 0.84890032 0.40223485 4281827000
0.17218176 0.76256824 0.37506962 4281827000
0.17485379 0.76452494 0.37505591 4281827000
0.17989294 0.76747936 0.37589091 4281827000
0.17484687 0.76546919 0.3716616 4281827000
0.17681079 0.7703464 0.37030685 4281827000
0.27374437 0.84903187 0.38966304 4281827000
0.170219 0.7693643 0.35024789 4281827000
0.17167228 0.77073824 0.35196695 4281827000
0.1879499 0.78630149 0.35921526 4281827000
0.2663655 0.84463763 0.37717086 4281827000
0.11796618 0.72722578 0.33026552 4294967091
0.11342824 0.70935547 0.2887544 4294967091
0.28599587 0.84512585 0.42646989 4293138972
0.28326356 0.8445816 0.41940227 4293138972
0.17098501 0.75890005 0.37439579 4281827000
0.17840095 0.76733893 0.37442964 4281827000
0.15052223 0.7468183 0.36122298 4281827000
0.15427427 0.749538 0.36313191 4281827000
0.15448637 0.750646 0.36156723 4281827000
0.2754012 0.85004091 0.38619652 4281827000
0.26776531 0.844679 0.37786722 4281827000
0.25187281 0.83647346 0.35612318 4281827000
0.17968294 0.78120291 0.33270785 4281827000
0.25108963 0.83588141 0.35585681 4281827000
0.28483579 0.85473841 0.41536519 4293138972
0.14905028 0.74572706 0.35883081 4281827000
0.15109926 0.74681598 0.35833865 4281827000
0.14461108 0.73933119 0.33838588 4294967091
0.14562923 0.73506176 0.32617676 4294967091
0.12738638 0.73066789 0.32415444 4294967091
0.14494394 0.73233783 0.32019681 4294967091
0.14737058 0.73313713 0.32204261 4294967091
0.24919206 0.83465135 0.35839257 4281827000
0.14514819 0.73132139 0.31781256 4294967091
0.11273733 0.70860875 0.29045296 4294967091
0.28840369 0.85544896 0.42303628 4293138972
0.2928308 0.85582733 0.41816196 4293138972
0.2922467 0.85734117 0.41977981 4293138972
0.29337841 0.85627002 0.41609892 4293138972
0.29559943 0.85833102 0.4127498 4293138972
0.32764819 0.86020327 0.40692052 4293138972
0.19239871 0.78164631 0.37395996 4281827000
0.17968971 0.77293313 0.3714059 4281827000
0.16176692 0.75828099 0.3595053 4281827000
0.17378651 0.7699787 0.36466664 4281827000
0.19150938 0.78438509 0.36929825 4281827000
0.19057654 0.78560174 0.36479729 4281827000
0.14471616 0.74078679 0.3446241 4281827000
0.16929908 0.76688015 0.35381714 4281827000
0.18997483 0.78678888 0.36436802 4281827000
0.19161418 0.78818601 0.36224434 4281827000
0.19297567 0.78917456 0.36340719 4281827000
0.26687914 0.84445041 0.37493375 4281827000
0.14510545 0.73414361 0.32404467 4294967091
0.14696009 0.73405081 0.32457787 4294967091
0.19352742 0.79065436 0.34542248 4281827000
0.14451991 0.73275805 0.32164302 4294967091
0.13333693 0.72676927 0.37626308 4281827000
0.17210931 0.75404805 0.38300827 4281827000
0.17206244 0.75825399 0.37942052 4281827000
0.17142688 0.75876063 0.37675685 4281827000
0.15396312 0.74863261 0.36786079 4281827000
0.25181475 0.83793473 0.38999361 4281827000
0.19498934 0.79203516 0.35840783 4281827000
0.1131786 0.71298945 0.30494374 4294967091
0.11469518 0.7148369 0.30642813 4294967091
0.11407868 0.71016055 0.29251379 4294967091
0.2804122 0.84098041 0.4241429 4293138972
0.28540841 0.84542251 0.424959 4293138972
0.29144394 0.85335279 0.42069146 4293138972
0.16036673 0.73792094 0.38803312 4281827000
0.29563761 0.85834891 0.40928429 4293138972
0.29724485 0.85840446 0.40365171 4293138972
0.17113146 0.76126474 0.37211409 4281827000
0.26150805 0.84240359 0.38979048 4281827000
0.2657682 0.84533918 0.38918334 4281827000
0.33817261 0.86103964 0.39490885 4293138972
0.1764403 0.77191114 0.36692348 4281827000
0.26452494 0.84467578 0.38465339 4281827000
0.22132167 0.81657189 0.3700617 4281827000
0.22827758 0.82612878 0.32488963 4294967091
0.278485 0.84112537 0.4210104 4293138972
0.31466192 0.85966778 0.41397142 4293138972
0.31811038 0.86424875 0.41554189 4293138972
0.17226021 0.75591356 0.37944859 4281827000
0.23756681 0.82627225 0.38146931 4281827000
0.17066705 0.7698698 0.34758011 4281827000
0.17114551 0.77038723 0.34513202 4281827000
0.14473251 0.73650157 0.32879502 4294967091
0.11739539 0.71246654 0.29710633 4294967091
0.29785734 0.84742188 0.42216936 4293138972
0.19485238 0.78378344 0.37401378 4281827000
0.1967963 0.78528982 0.37489569 4281827000
0.33781803 0.86099392 0.39676589 4293138972
0.1956303 0.78526634 0.3719238 4281827000
0.19721508 0.78815967 0.37278152 4281827000
0.19766308 0.79304075 0.36119792 4281827000
0.11975083 0.7276215 0.33102244 4294967091
0.2667909 0.84316325 0.36839056 4281827000
0.24921322 0.83482122 0.36052489 4281827000
0.28166202 0.78565854 0.26872244 4294967091
0.17574477 0.76304203 0.37611836 4281827000
0.25996721 0.84099019 0.39550981 4281827000
0.22527313 0.81073886 0.38354009 4281827000
0.25604439 0.83873159 0.39445901 4281827000
0.2594732 0.84158689 0.39393041 4281827000
0.12946904 0.73231632 0.34078142 4294967091
0.13243978 0.73375762 0.34058225 4294967091
0.13443007 0.73530978 0.34245342 4294967091
0.20930275 0.80373377 0.36757466 4281827000
0.2115913 0.80717796 0.36749482 4281827000
0.21278447 0.80957538 0.36800548 4281827000
0.21308257 0.81061447 0.36556914 4281827000
0.21167614 0.80950171 0.36447233 4281827000
0.26948389 0.84513927 0.37536627 4281827000
0.30397281 0.86225283 0.43096843 4293138972
0.28303438 0.85333472 0.40956411 4293138972
0.17352127 0.76154643 0.37731364 4281827000
0.16963041 0.76111656 0.37049708 4281827000
0.19328918 0.78341532 0.37240952 4281827000
0.28780568 0.85472995 0.39080656 4293138972
0.25086573 0.83699507 0.38857237 4281827000
0.17351663 0.77157515 0.36371765 4281827000
0.18800683 0.78445607 0.36225075 4281827000
0.17381079 0.77295226 0.35137364 4281827000
0.24227816 0.83227438 0.37744671 4281827000
0.19620319 0.79292136 0.35522887 4281827000
0.24674471 0.83420432 0.36919266 4281827000
0.19567102 0.79301989 0.35281175 4281827000
0.1308051 0.73210919 0.32406279 4294967091
0.27748457 0.78479713 0.27585036 4294967091
0.27836284 0.78492725 0.27346411 4294967091
0.31067708 0.86566728 0.4263956 4293138972
0.28096935 0.84495181 0.42048785 4293138972
0.25812665 0.8390395 0.39821169 4281827000
0.25792143 0.83938295 0.39485556 4281827000
0.25386679 0.83547121 0.39078483 4281827000
0.25797573 0.84045452 0.39279768 4281827000
0.22944567 0.81710267 0.38454089 4281827000
0.24132182 0.82722646 0.38708949 4281827000
0.2550216 0.83871353 0.39107269 4281827000
0.24308029 0.82873839 0.38403776 4281827000
0.14309232 0.7409814 0.34910586 4281827000
0.16257524 0.75857973 0.35548076 4281827000
0.16757464 0.76442194 0.35948408 4281827000
0.23853798 0.82689762 0.38295132 4281827000
0.24210963 0.82989705 0.38368225 4281827000
0.24325447 0.83152521 0.38032454 4281827000
0.12858932 0.73111719 0.32368904 4294967091
0.21044488 0.81012601 0.35316268 4281827000
0.19181815 0.78890932 0.34054989 4281827000
0.2461129 0.83222854 0.34817448 4281827000
0.16366087 0.73920733 0.38853836 4281827000
0.16149092 0.74058133 0.38856333 4281827000
0.16433653 0.74165761 0.38831168 4281827000
0.29705134 0.85876113 0.41101366 4293138972
0.16891648 0.75236636 0.38149175 4281827000
0.18005484 0.77027577 0.37421381 4281827000
0.25547028 0.83683878 0.39422774 4281827000
0.24095504 0.82687181 0.38501433 4281827000
0.25444329 0.83885902 0.38980761 4281827000
0.1481659 0.74450195 0.35349116 4281827000
0.24075672 0.82798094 0.38364357 4281827000
0.19528061 0.79018641 0.36660093 4281827000
0.31374225 0.86290008 0.38999343 4293138972
0.19503868 0.79064757 0.36415729 4281827000
0.19608128 0.79172945 0.36741784 4281827000
0.19451097 0.79078674 0.36220178 4281827000
0.282958 0.84464633 0.42285228 4293138972
0.14614172 0.73273283 0.3849256 4281827000
0.29928058 0.86003649 0.40373728 4293138972
0.25316206 0.83361703 0.39537904 4281827000
0.25425133 0.83492118 0.39608935 4281827000
0.24105442 0.82645464 0.39099786 4281827000
0.23949625 0.82460338 0.38490427 4281827000
0.19409594 0.78681886 0.36993089 4281827000
0.24086386 0.82857448 0.38158035 4281827000
0.24326696 0.82995164 0.37815845 4281827000
0.19700965 0.7921955 0.3633604 4281827000
0.34381619 0.86267287 0.39041018 4293138972
0.34379771 0.8642267 0.38812011 4293138972
0.31377676 0.86147511 0.38419995 4293138972
0.13576186 0.7264666 0.3786864 4281827000
