# .PCD v0.7 - Point Cloud Data file format
VERSION 0.7
FIELDS x y z rgba
SIZE 4 4 4 4
TYPE F F F U
COUNT 1 1 1 1
WIDTH 1093
HEIGHT 1
VIEWPOINT 0 0 0 1 0 0 0
POINTS 1093
DATA ascii
0.2213847 0.76178747 0.39982176 4281827000
0.13706224 0.63753837 0.35442474 4281827000
0.14131927 0.64920419 0.35126278 4281827000
0.19543745 0.70704216 0.37527168 4281827000
0.21804892 0.76751572 0.38555717 4281827000
0.13095891 0.64489371 0.33354226 4294967091
0.18400782 0.69353545 0.34877515 4281827000
0.11306016 0.60398489 0.28804094 4294967091
0.21785839 0.7358439 0.34705421 4294967091
0.22099017 0.74849385 0.3477588 4294967091
0.21791671 0.74268305 0.34670472 4294967091
0.21695673 0.73904502 0.30415955 4294967091
0.19822267 0.79204565 0.26327059 4294967091
0.25872833 0.7858761 0.4604553 4293138972
0.22665179 0.77472305 0.4041436 4281827000
0.2243302 0.77036428 0.40224391 4281827000
0.22218043 0.76212597 0.4019497 4281827000
0.22045203 0.75582606 0.39924085 4281827000
0.21846339 0.75313622 0.39874426 4281827000
0.14472394 0.65245008 0.3605001 4281827000
0.22461581 0.77686107 0.40153277 4281827000
0.18235156 0.6906805 0.37502006 4281827000
0.22304113 0.77221322 0.39724836 4281827000
0.22251298 0.77250183 0.39501923 4281827000
0.22036539 0.76093572 0.39410412 4281827000
0.20817485 0.72361803 0.38397652 4281827000
0.13761221 0.64396197 0.34312728 4294967091
0.21155706 0.72646356 0.37905833 4281827000
0.21824746 0.74690467 0.3746185 4281827000
0.21650009 0.76848161 0.37493289 4281827000
0.2176892 0.76436621 0.35739106 4281827000
0.21518959 0.73472667 0.3374137 4294967091
0.18638089 0.77222294 0.32695544 4294967091
0.10069236 0.67951977 0.27168801 4294967091
0.2555466 0.78653818 0.47165155 4293138972
0.25451747 0.77918297 0.46918789 4293138972
0.2219473 0.76366806 0.40119481 4281827000
0.14036348 0.64598745 0.35660085 4281827000
0.21957318 0.75668263 0.3980765 4281827000
0.19851798 0.77796519 0.42172173 4281827000
0.21531317 0.74268067 0.38973224 4281827000
0.2101316 0.7848525 0.39202699 4281827000
0.2193892 0.75880557 0.37494174 4281827000
0.29159632 0.80666745 0.40996981 4293138972
0.11429553 0.6036033 0.28969002 4294967091
0.19645102 0.79072946 0.27251524 4294967091
0.27838603 0.79497898 0.43440852 4293138972
0.22596973 0.77058554 0.40318906 4281827000
0.20488071 0.72256863 0.39076534 4281827000
0.18679741 0.69944638 0.3818776 4281827000
0.17738608 0.68510532 0.37600768 4281827000
0.13799654 0.63616252 0.35622191 4281827000
0.22559936 0.7780115 0.40307921 4281827000
0.28484112 0.80917531 0.42615399 4293138972
0.19453736 0.70694244 0.37811479 4281827000
0.21346563 0.73272502 0.3857483 4281827000
0.19887581 0.71015823 0.37279657 4281827000
0.21767266 0.75953281 0.38005883 4281827000
0.21908692 0.75187105 0.37669566 4281827000
0.12445352 0.61996275 0.3178032 4294967091
0.092260785 0.66730577 0.30267328 4294967091
0.21778764 0.7638275 0.36047831 4281827000
0.11507614 0.59149498 0.26916763 4294967091
0.10658216 0.68468404 0.26381844 4294967091
0.22045696 0.72910726 0.27069727 4294967091
0.28256118 0.80020124 0.42956007 4293138972
0.18810955 0.69907141 0.37837619 4281827000
0.13829006 0.64474183 0.34852141 4281827000
0.21612194 0.74549484 0.38595742 4281827000
0.21059695 0.72622371 0.38140061 4281827000
0.21336259 0.72925752 0.38006082 4281827000
0.18794063 0.6941635 0.36640531 4281827000
0.21644531 0.73773414 0.37957656 4281827000
0.21651047 0.73546803 0.37052885 4281827000
0.12132853 0.61629611 0.31294289 4294967091
0.092680261 0.66457993 0.30213553 4294967091
0.21715179 0.73004228 0.35329577 4294967091
0.18873452 0.77567196 0.32112062 4294967091
0.25415269 0.78231663 0.47813192 4293138972
0.25484362 0.78352976 0.47635534 4293138972
0.25844195 0.80667239 0.454604 4293138972
0.27044624 0.78955567 0.44945765 4293138972
0.22660267 0.77194458 0.40588552 4281827000
0.22207725 0.76326096 0.40287384 4281827000
0.21433197 0.74364543 0.39789248 4281827000
0.1822512 0.69253999 0.37993959 4281827000
0.1415187 0.64776736 0.35907471 4281827000
0.13858959 0.64262432 0.35425755 4281827000
0.22147232 0.77068537 0.39495671 4281827000
0.21592447 0.7847271 0.39946485 4281827000
0.18781309 0.69482666 0.37009627 4281827000
0.21987702 0.76426923 0.38906941 4281827000
0.21735841 0.75401688 0.38579556 4281827000
0.13224269 0.64402866 0.33492908 4294967091
0.1306618 0.64171076 0.33090007 4294967091
0.21578041 0.73082483 0.37077704 4281827000
0.093616351 0.66365498 0.30698034 4294967091
0.21979435 0.75756139 0.36969775 4281827000
0.2043881 0.78436619 0.36620322 4281827000
0.093290374 0.67604673 0.28906626 4294967091
0.27029273 0.80780679 0.43716609 4293138972
0.27965057 0.79667485 0.43310675 4293138972
0.22231767 0.75929922 0.40686411 4281827000
0.17799649 0.68641967 0.37704417 4281827000
0.2237431 0.7721861 0.39970586 4281827000
0.21243282 0.73252028 0.38773414 4281827000
0.21900852 0.75913721 0.38967496 4281827000
0.21799526 0.75680268 0.38111636 4281827000
0.092037201 0.67029423 0.29500893 4294967091
0.092888899 0.67309505 0.28666303 4294967091
0.1133893 0.5966574 0.27467009 4294967091
0.26910758 0.79533911 0.44865766 4293138972
0.27181384 0.79009026 0.44860399 4293138972
0.25835434 0.79618794 0.46017364 4293138972
0.2778807 0.79389268 0.43436322 4293138972
0.22479376 0.77012444 0.40439764 4281827000
0.14071053 0.64693147 0.36164036 4281827000
0.22103144 0.75816417 0.40121791 4281827000
0.20811437 0.72850615 0.3912003 4281827000
0.19886795 0.71554273 0.38656858 4281827000
0.13943887 0.64243245 0.35626537 4281827000
0.21716128 0.74595881 0.38782948 4281827000
0.21781524 0.74852294 0.38152003 4281827000
0.21645428 0.7415663 0.38098642 4281827000
0.19926971 0.70990354 0.36713475 4281827000
0.092595503 0.6698038 0.29056212 4294967091
0.20727269 0.77373785 0.36521372 4281827000
0.21496782 0.75942773 0.34385407 4294967091
0.21465585 0.756414 0.34087962 4294967091
0.21463157 0.7490778 0.3345677 4294967091
0.19799066 0.78976059 0.26939839 4294967091
0.29223406 0.81078601 0.41007942 4293138972
0.28944737 0.80954033 0.40470639 4293138972
0.11237472 0.59449363 0.27410585 4294967091
0.27612689 0.80536085 0.43701982 4293138972
0.22577685 0.7732017 0.40744627 4281827000
0.22252348 0.76197302 0.40317103 4281827000
0.18137702 0.6903829 0.37786731 4281827000
0.1366595 0.63361484 0.35617772 4294967091
0.20943676 0.72667879 0.38774097 4281827000
0.13861687 0.64475232 0.35042074 4281827000
0.13927278 0.63832557 0.34874949 4294967091
0.28849798 0.80229467 0.42166838 4293138972
0.13751182 0.65022498 0.3481023 4281827000
0.13278496 0.64826983 0.33764219 4294967091
0.29058573 0.80751604 0.41616499 4293138972
0.21630953 0.73449612 0.37203741 4281827000
0.21261169 0.72360712 0.36822265 4281827000
0.22085829 0.74814427 0.36552447 4281827000
0.21922989 0.74473977 0.34634671 4294967091
0.18885341 0.78357863 0.31096458 4294967091
0.13582826 0.65045965 0.39935642 4281827000
0.26041412 0.81106377 0.45081905 4293138972
0.22395626 0.7652024 0.40424702 4281827000
0.20602939 0.72670251 0.39317724 4281827000
0.18796982 0.70307958 0.3837204 4281827000
0.18421751 0.696127 0.38161495 4281827000
0.14043681 0.64476705 0.35930309 4281827000
0.13777228 0.64121532 0.35777628 4281827000
0.20957461 0.73153889 0.39202151 4281827000
0.21503679 0.74540275 0.39488885 4281827000
0.2090047 0.72729975 0.3893511 4281827000
0.20431644 0.71531677 0.37358442 4281827000
0.12393245 0.62414718 0.31695321 4294967091
0.21262597 0.76924098 0.3695035 4281827000
0.20629677 0.78055578 0.35545111 4281827000
0.21824938 0.76278532 0.35361534 4294967091
0.094326459 0.67601198 0.28136671 4294967091
0.18755232 0.77575165 0.32863444 4294967091
0.21414647 0.74771339 0.32068747 4294967091
0.21631049 0.74174827 0.30528438 4294967091
0.19821364 0.79339182 0.26815882 4294967091
0.22096111 0.72560048 0.26828608 4294967091
0.22633377 0.77433532 0.40704048 4281827000
0.18115163 0.6920386 0.38112551 4281827000
0.21902736 0.75206637 0.39943549 4281827000
0.21637763 0.74870586 0.39948767 4281827000
0.14262351 0.64934886 0.36139953 4281827000
0.21773739 0.75188494 0.39505184 4281827000
0.20705603 0.7217617 0.3853949 4281827000
0.13767762 0.64133298 0.34436813 4294967091
0.29028466 0.80509609 0.41748619 4293138972
0.13588364 0.64489883 0.33941352 4294967091
0.13480772 0.6429078 0.3386924 4294967091
0.21732098 0.77096725 0.3829459 4281827000
0.22153229 0.75302446 0.36000049 4294967091
0.22111423 0.74315107 0.35228869 4294967091
0.22131243 0.74552763 0.35019296 4294967091
0.21733773 0.74565268 0.3447291 4294967091
0.21647598 0.7365827 0.33760709 4294967091
0.21583027 0.7486822 0.32434702 4294967091
0.18923821 0.77804762 0.30855456 4294967091
0.18700995 0.79004806 0.30285165 4294967091
0.25530079 0.77892375 0.46768907 4293138972
0.13969216 0.64109898 0.37663326 4281827000
0.27952635 0.78910595 0.4272137 4293138972
0.2258072 0.77446479 0.40498841 4281827000
0.21374214 0.74163949 0.39637592 4281827000
0.28461725 0.81157994 0.42221582 4293138972
0.21600772 0.74218279 0.38387519 4281827000
0.29240656 0.80364901 0.41008103 4293138972
0.21879798 0.7601878 0.35132357 4294967091
0.18278173 0.7846784 0.32907221 4294967091
0.18685201 0.76680017 0.32448331 4294967091
0.21830261 0.74008954 0.33586735 4294967091
0.22064504 0.72311765 0.26903564 4294967091
0.19873667 0.79436624 0.26725668 4294967091
0.259556 0.80727911 0.45355105 4293138972
0.21786225 0.74935675 0.4022193 4281827000
0.14203897 0.64843529 0.36395231 4281827000
0.13764395 0.64060557 0.36098897 4281827000
0.13733417 0.63865548 0.3599408 4281827000
0.20427445 0.72291273 0.39183062 4281827000
0.28534004 0.80943656 0.42574823 4293138972
0.22214147 0.77273607 0.3953017 4281827000
0.22073939 0.76465857 0.39423755 4281827000
0.21908951 0.76111239 0.39142901 4281827000
0.13761456 0.64054447 0.34555742 4294967091
0.21792881 0.75393975 0.38260162 4281827000
0.21889009 0.75181854 0.37398309 4281827000
0.21887966 0.74037468 0.36851856 4281827000
0.20773928 0.77763915 0.35224739 4281827000
0.20826393 0.7760011 0.34862265 4281827000
0.18570229 0.77579427 0.32238692 4294967091
0.10415983 0.6759491 0.26493314 4294967091
0.25883308 0.80805111 0.45428684 4293138972
0.2815733 0.7997157 0.43034074 4293138972
0.22445695 0.76681536 0.40641022 4281827000
0.21996699 0.75329959 0.40135899 4281827000
0.21303362 0.7405265 0.39825881 4281827000
0.18874758 0.70464969 0.38596866 4281827000
0.1355993 0.63283163 0.35869211 4281827000
0.20793627 0.73006904 0.39345288 4281827000
0.20780234 0.72506684 0.38766909 4281827000
0.13868558 0.64948708 0.34910983 4281827000
0.1372492 0.64625388 0.34365216 4294967091
0.21817787 0.76974446 0.38618967 4281827000
0.21681225 0.74720728 0.38157672 4281827000
0.21772361 0.7332992 0.36350176 4281827000
0.091763936 0.67007279 0.30385438 4294967091
0.11853103 0.62267107 0.30897173 4294967091
0.2198396 0.73463726 0.35759094 4294967091
0.22008534 0.74385077 0.35317746 4294967091
0.2030745 0.78196794 0.3489202 4294967091
0.20533057 0.77875155 0.35008392 4281827000
0.21392341 0.73133844 0.3347244 4294967091
0.18627231 0.7674458 0.32556462 4294967091
0.1870535 0.76574743 0.32531989 4294967091
0.26137763 0.78963751 0.45749027 4293138972
0.28137577 0.7977491 0.43016088 4293138972
0.21586783 0.74663651 0.40158737 4281827000
0.14231929 0.64759916 0.36524135 4281827000
0.13691613 0.64089525 0.36295655 4281827000
0.2264957 0.77262866 0.40605336 4281827000
0.20732711 0.73164493 0.39490283 4281827000
0.14222403 0.65116972 0.36291748 4281827000
0.20943592 0.72970939 0.39014918 4281827000
0.13592748 0.63085109 0.35293126 4294967091
0.28237274 0.80852807 0.42484677 4293138972
0.21748328 0.75383407 0.38952544 4281827000
0.20396556 0.78597432 0.40963301 4281827000
0.12479598 0.63429999 0.32195544 4294967091
0.29367229 0.80201918 0.40837997 4293138972
0.21477699 0.76210421 0.37686649 4281827000
0.12012122 0.62449563 0.31066003 4294967091
0.09240105 0.66290182 0.29562628 4294967091
0.18285967 0.78462285 0.32756317 4294967091
0.18724692 0.7686184 0.32656801 4294967091
0.21681081 0.74586636 0.33522618 4294967091
0.10201442 0.67263889 0.26965204 4294967091
0.19976941 0.79648727 0.26287392 4294967091
0.25428426 0.78361946 0.47423646 4293138972
0.26933286 0.80451763 0.44356382 4293138972
0.13830765 0.64115095 0.35945439 4281827000
0.18657726 0.69814742 0.3800697 4281827000
0.17905715 0.68771636 0.37623999 4281827000
0.19234405 0.70532984 0.38058573 4281827000
0.14095007 0.65004247 0.35698 4281827000
0.28820595 0.80390435 0.42264688 4293138972
0.22111557 0.77104867 0.39473301 4281827000
0.22007346 0.76833618 0.38927633 4281827000
0.21632805 0.74584621 0.38285744 4281827000
0.29036555 0.80866402 0.40443492 4293138972
0.21900675 0.73685539 0.36325544 4281827000
0.09155684 0.66985387 0.29650635 4294967091
0.11103107 0.60470068 0.28334811 4294967091
0.22168991 0.75429904 0.35062265 4294967091
0.21884543 0.74436367 0.34763628 4294967091
0.2176902 0.74847698 0.34245977 4294967091
0.18815809 0.76863402 0.31984863 4294967091
0.25492245 0.77728361 0.46840113 4293138972
0.26299867 0.78980476 0.45589542 4293138972
0.13644688 0.63832498 0.36268327 4281827000
0.22633556 0.76862305 0.40710452 4281827000
0.22025394 0.75413835 0.4027617 4281827000
0.21214749 0.74157709 0.39859241 4281827000
0.20599099 0.72827828 0.39506707 4281827000
0.2004831 0.78707123 0.36818838 4281827000
0.18381968 0.78185898 0.33509037 4294967091
0.18685229 0.76642871 0.32685 4294967091
0.10487834 0.68537647 0.26041135 4294967091
0.25873566 0.80163044 0.45769313 4293138972
0.22122802 0.75487733 0.40429595 4281827000
0.18700245 0.70361787 0.38631955 4281827000
0.13590452 0.63869119 0.36154392 4281827000
0.21100344 0.73314726 0.39062029 4281827000
0.21806374 0.76071835 0.38610339 4281827000
0.21797711 0.74413419 0.37481782 4281827000
0.29203576 0.80531174 0.40778881 4293138972
0.20072681 0.78595889 0.36285251 4281827000
0.22092599 0.75027466 0.36535054 4281827000
0.22106439 0.74402267 0.36451831 4281827000
0.20229809 0.77539414 0.38224536 4281827000
0.22155975 0.74576068 0.36222473 4294967091
0.093710028 0.66715485 0.28682399 4294967091
0.18773493 0.76556283 0.3201381 4294967091
0.1940265 0.78769743 0.28937444 4294967091
0.26663202 0.7956875 0.45009425 4293138972
0.27539927 0.79148334 0.44076383 4293138972
0.28479531 0.80842495 0.42309678 4293138972
0.19595875 0.708956 0.37675214 4281827000
0.20875776 0.77764559 0.3651081 4281827000
0.091750637 0.66951102 0.29302242 4294967091
0.26707539 0.80775988 0.43934241 4293138972
0.17337747 0.69845438 0.39514741 4281827000
0.27678147 0.79452151 0.43672112 4293138972
0.22975512 0.76786965 0.41880646 4281827000
0.22670589 0.76928926 0.40793744 4281827000
0.18503265 0.70125031 0.38603124 4281827000
0.14302759 0.65083337 0.36538866 4281827000
0.22191207 0.75918567 0.40347496 4281827000
0.22005537 0.75624865 0.40321305 4281827000
0.28387618 0.79820442 0.42650023 4293138972
0.2143214 0.74262553 0.3947126 4281827000
0.18120466 0.68938875 0.37574756 4281827000
0.21997711 0.76520258 0.39015403 4281827000
0.21090327 0.72706652 0.38098964 4281827000
0.21893236 0.74090058 0.37272599 4281827000
0.093454003 0.66171366 0.30746332 4294967091
0.12018196 0.62171233 0.31090912 4294967091
0.21725829 0.76401085 0.36764011 4281827000
0.19840483 0.78849167 0.36726609 4281827000
0.090237781 0.6725105 0.30255458 4294967091
0.20252581 0.78541028 0.36397028 4281827000
0.21631162 0.75701839 0.34376165 4294967091
0.21819368 0.74174637 0.34027675 4294967091
0.21691638 0.73708493 0.3349677 4294967091
0.18649133 0.76851761 0.31839016 4294967091
0.21731703 0.73462903 0.32491866 4294967091
0.21800455 0.73646218 0.3064557 4294967091
0.19883977 0.79218704 0.26635516 4294967091
0.27604425 0.79926687 0.43822083 4293138972
0.2271495 0.76895404 0.40953898 4281827000
0.21722956 0.74895686 0.40360665 4281827000
0.20490424 0.72600764 0.39425632 4281827000
0.22409752 0.76842022 0.40216723 4281827000
0.19418763 0.71030378 0.38348687 4281827000
0.21947326 0.7610811 0.36248639 4281827000
0.21441096 0.7680825 0.36271229 4281827000
0.22231984 0.74666423 0.3517215 4294967091
0.21391276 0.76480269 0.35681129 4281827000
0.1120757 0.59477383 0.27869016 4294967091
0.20529418 0.77883458 0.34513316 4294967091
0.18171495 0.77905411 0.32790112 4294967091
0.1900432 0.78408056 0.30438587 4294967091
0.25383598 0.7833693 0.47763368 4293138972
0.27497455 0.79386055 0.44037712 4293138972
0.22228403 0.76302636 0.40743282 4281827000
0.2062352 0.73232776 0.39722958 4281827000
0.28072438 0.79217297 0.42742026 4293138972
0.20630823 0.72898632 0.39421669 4281827000
0.28287166 0.79896039 0.42786857 4293138972
0.22266369 0.78287876 0.3997989 4281827000
0.2134096 0.7370435 0.38647348 4281827000
0.21908145 0.75981522 0.36460298 4281827000
0.21978639 0.73954332 0.36108425 4294967091
0.091978699 0.66330403 0.29273218 4294967091
0.1825677 0.77679151 0.32479751 4294967091
0.21798231 0.74503148 0.33032712 4294967091
0.19213051 0.79272813 0.2816565 4294967091
0.25440758 0.78189331 0.46905196 4293138972
0.23098285 0.76855177 0.42079249 4281827000
0.22820599 0.77106255 0.41075981 4281827000
0.20346111 0.72510409 0.39571443 4281827000
0.18374288 0.70120066 0.38753209 4281827000
0.18052913 0.69446087 0.38494638 4281827000
0.22026634 0.7558074 0.40455449 4281827000
0.21216795 0.742787 0.40081677 4281827000
0.18874826 0.70678484 0.38773233 4281827000
0.22304174 0.77487069 0.39854097 4281827000
0.22164679 0.76879662 0.39592677 4281827000
0.22050357 0.75928682 0.39603516 4281827000
0.21777515 0.76313716 0.38426337 4281827000
0.12451571 0.63180155 0.32035768 4294967091
0.089587122 0.6746195 0.29753184 4294967091
0.092399366 0.66360921 0.29757661 4294967091
0.22293445 0.74813002 0.35883564 4294967091
0.19434534 0.78668433 0.27981991 4294967091
0.21735707 0.73226207 0.2729874 4294967091
0.19815379 0.79326904 0.26581544 4294967091
0.2617515 0.80684078 0.45327821 4293138972
0.27914095 0.79061347 0.42939323 4293138972
0.22378072 0.76231843 0.40799832 4281827000
0.21151863 0.7419591 0.4015739 4281827000
0.22021373 0.76765883 0.39367554 4281827000
0.2165058 0.76327568 0.37865907 4281827000
0.29093221 0.80866337 0.4057802 4293138972
0.20486841 0.77089059 0.38953441 4281827000
0.092226468 0.66445118 0.30709878 4294967091
0.21024533 0.77670288 0.36498967 4281827000
0.21545118 0.76240116 0.34957892 4294967091
0.18409401 0.78353179 0.32797211 4294967091
0.19033635 0.79224193 0.28715944 4294967091
0.21979855 0.72989964 0.27709201 4294967091
0.22517003 0.763668 0.40975103 4281827000
0.18548006 0.70300335 0.38687021 4281827000
0.21431682 0.74239445 0.39316729 4281827000
0.21214186 0.73639005 0.38989925 4281827000
0.13820031 0.63957691 0.35156024 4294967091
0.28580338 0.80884093 0.42454082 4293138972
0.22108248 0.77766275 0.39217007 4281827000
0.135152 0.64893663 0.33972922 4294967091
0.12556303 0.61960483 0.32230091 4294967091
0.21525845 0.77084702 0.37573817 4281827000
0.29144672 0.80751342 0.40783799 4293138972
0.22128016 0.75266045 0.35390055 4294967091
0.21688566 0.74472314 0.33893046 4294967091
0.10103586 0.67963845 0.2695252 4294967091
0.10879112 0.68397123 0.26020065 4294967091
0.2580179 0.79871279 0.4559491 4293138972
0.21865015 0.75967354 0.39020163 4281827000
0.21813345 0.75419736 0.3769317 4281827000
0.29430863 0.80400759 0.40268824 4293138972
0.090062998 0.6716485 0.30333355 4294967091
0.18811542 0.77771312 0.32547525 4294967091
0.18716377 0.77554864 0.32522258 4294967091
0.18722847 0.76930106 0.32166946 4294967091
0.21522218 0.74145722 0.30235991 4294967091
0.25508472 0.78051865 0.46836466 4293138972
0.25710297 0.80552262 0.45573267 4293138972
0.14198381 0.64449805 0.36819446 4281827000
0.13638049 0.63487333 0.35736951 4281827000
0.22282167 0.76554209 0.40205282 4281827000
0.12771469 0.63490111 0.32639608 4294967091
0.20189482 0.78440779 0.36759198 4281827000
0.091594681 0.66680658 0.29697451 4294967091
0.18448125 0.78595805 0.31496727 4294967091
0.26285443 0.80825359 0.44876385 4293138972
0.27264169 0.78913307 0.44600472 4293138972
0.26590437 0.80756825 0.44312653 4293138972
0.27492544 0.80723578 0.4393965 4293138972
0.2785154 0.79677111 0.43417481 4293138972
0.22605538 0.76608461 0.41023383 4281827000
0.21118805 0.74169397 0.4020904 4281827000
0.1406319 0.64447856 0.36430922 4281827000
0.18349551 0.69094926 0.37362263 4281827000
0.18808988 0.69635051 0.37390611 4281827000
0.21836267 0.76028758 0.38835755 4281827000
0.29129264 0.81040978 0.41298175 4293138972
0.19857402 0.78745872 0.36148909 4281827000
0.091639891 0.66493595 0.29499874 4294967091
0.21468695 0.7512477 0.33915627 4294967091
0.21764268 0.74117953 0.3379848 4294967091
0.19196685 0.79210538 0.28492206 4294967091
0.26622313 0.79537642 0.45113131 4293138972
0.1354153 0.63653678 0.36543322 4281827000
0.18788505 0.70759583 0.38936526 4281827000
0.21781045 0.75462759 0.38324416 4281827000
0.1992756 0.78604054 0.36654863 4281827000
0.22131009 0.74727315 0.36248824 4294967091
0.11127247 0.60349607 0.28437251 4294967091
0.18663664 0.77127439 0.3293246 4294967091
0.10304057 0.68246639 0.26469928 4294967091
0.19005172 0.78237271 0.30485234 4294967091
0.25491247 0.78529835 0.46752957 4293138972
0.27555797 0.79297936 0.43913403 4293138972
0.21165332 0.74283516 0.4033531 4281827000
0.21299045 0.79018444 0.40497962 4281827000
0.21907452 0.75456166 0.39147103 4281827000
0.21414022 0.73930323 0.38718751 4281827000
0.19466586 0.70293736 0.3657693 4281827000
0.21519487 0.77121133 0.37313661 4281827000
0.22066259 0.74263054 0.36803913 4281827000
0.18685643 0.76569527 0.31947619 4294967091
0.21440156 0.7495203 0.32759452 4294967091
0.21361189 0.74439013 0.3114996 4294967091
0.19176804 0.79297978 0.27832502 4294967091
0.13870558 0.64374459 0.37380511 4281827000
0.1337578 0.63310224 0.36540225 4281827000
0.20318758 0.72722208 0.39718276 4281827000
0.20000847 0.71801686 0.39029229 4281827000
0.21829647 0.76050842 0.38715163 4281827000
0.13496281 0.64572942 0.33981916 4294967091
0.21708807 0.77333289 0.38156843 4281827000
0.29299617 0.80603755 0.40302873 4293138972
0.22107176 0.75149179 0.36529303 4281827000
0.21447474 0.7666117 0.36732733 4281827000
0.090952247 0.6701203 0.29900348 4294967091
0.22130845 0.74853724 0.35303974 4294967091
0.11126605 0.59967834 0.2759198 4294967091
0.19203901 0.78673518 0.2942484 4294967091
0.13920088 0.64482433 0.36827502 4281827000
0.22040887 0.76098627 0.39717704 4281827000
0.21421865 0.74181128 0.39056754 4281827000
0.28822231 0.79793167 0.42049599 4293138972
0.13689557 0.63569826 0.34690773 4294967091
0.2181531 0.73990834 0.37460965 4281827000
0.2183727 0.74109131 0.37149435 4281827000
0.22069204 0.74091631 0.35956064 4294967091
0.2198112 0.75861877 0.36075377 4281827000
0.21554618 0.73182225 0.34492925 4294967091
0.1924382 0.78518838 0.29505152 4294967091
0.19191395 0.79288727 0.28028467 4294967091
0.19599135 0.7931782 0.26960218 4294967091
0.25570837 0.78354722 0.47316787 4293138972
0.26119798 0.79320997 0.45678821 4293138972
0.27445078 0.80641407 0.43551505 4293138972
0.27663425 0.8063668 0.43565461 4293138972
0.28070098 0.79927522 0.43166751 4293138972
0.21544139 0.74478549 0.39722866 4281827000
0.22333002 0.77144539 0.40102258 4281827000
0.20799367 0.72189492 0.38264278 4281827000
0.29186577 0.8073805 0.41322711 4293138972
0.21788676 0.74068922 0.37723708 4281827000
0.12489458 0.63077819 0.32163262 4294967091
0.11112251 0.60230178 0.27963939 4294967091
0.20364614 0.78124321 0.34692937 4294967091
0.18649191 0.76771939 0.32817036 4294967091
0.18673635 0.76709479 0.32070422 4294967091
0.18639012 0.7887696 0.30393487 4294967091
0.16748579 0.68132466 0.38452482 4281827000
0.21144544 0.73721975 0.39598873 4281827000
0.22072662 0.77123594 0.39312807 4281827000
0.2088275 0.72291088 0.38130423 4281827000
0.2136627 0.72845781 0.37432992 4281827000
0.088830836 0.67444319 0.29987317 4294967091
0.21155982 0.77186131 0.34700459 4281827000
0.1868535 0.77444774 0.32550222 4294967091
0.096254542 0.67887616 0.26871642 4294967091
0.18634845 0.76770443 0.32191712 4294967091
0.25260308 0.80546933 0.46032873 4293138972
0.21986006 0.77250928 0.39084864 4281827000
0.1320702 0.63486326 0.33641022 4294967091
0.12612815 0.62037641 0.32648134 4294967091
0.19876206 0.78815937 0.35999671 4294967091
0.11373934 0.59854788 0.28241271 4294967091
0.21651568 0.75346684 0.34347904 4294967091
0.18597782 0.76832676 0.3296631 4294967091
0.2159913 0.74561882 0.33656362 4294967091
0.25496438 0.78143823 0.4710829 4293138972
0.26001036 0.78926694 0.4585233 4293138972
0.25388128 0.80200541 0.46238297 4293138972
0.226326 0.76500958 0.41418585 4281827000
0.22758912 0.76744246 0.412319 4281827000
0.17751247 0.69222605 0.38672465 4281827000
0.28285345 0.79977429 0.42886898 4293138972
0.14530103 0.65403515 0.36458969 4281827000
0.13738953 0.63410115 0.35357285 4294967091
0.18931641 0.69981974 0.37649363 4281827000
0.13843593 0.64008361 0.3467581 4294967091
0.21716897 0.77119493 0.38324323 4281827000
0.2927193 0.80376601 0.41186208 4293138972
0.28990361 0.80609185 0.40394324 4293138972
0.2918106 0.80518955 0.40436456 4293138972
0.21413764 0.72467655 0.36145148 4281827000
0.1945494 0.77981669 0.39773962 4281827000
0.21603148 0.72679573 0.35154209 4294967091
0.21733388 0.75792551 0.3614054 4281827000
0.21567802 0.7480132 0.33642167 4294967091
0.10087541 0.68395823 0.26299366 4294967091
0.21517552 0.73663431 0.28905079 4294967091
0.25984386 0.81058246 0.45097443 4293138972
0.27391711 0.79353637 0.44132566 4293138972
0.27222458 0.80279595 0.44024488 4293138972
0.14370233 0.65334666 0.37377611 4281827000
0.22134288 0.75953895 0.40459171 4281827000
0.13801837 0.64264345 0.35718146 4281827000
0.2916767 0.80412328 0.4136017 4293138972
0.22081147 0.75029445 0.36846867 4281827000
0.20449015 0.77396458 0.38621899 4281827000
0.092748433 0.6631766 0.28973898 4294967091
0.21310969 0.75268811 0.33544981 4294967091
0.19230506 0.78072858 0.29452249 4294967091
0.19132765 0.79173535 0.2871325 4294967091
0.25408819 0.77946907 0.47542194 4293138972
0.2574541 0.78801864 0.46149006 4293138972
0.23091318 0.7667399 0.42331323 4281827000
0.17972142 0.70040381 0.39049307 4281827000
0.20381841 0.72698808 0.39596194 4281827000
0.20949477 0.73439819 0.39476442 4281827000
0.22301614 0.77451521 0.39970446 4281827000
0.21720178 0.75622302 0.38233587 4281827000
0.21704493 0.74154586 0.37708411 4281827000
0.21661237 0.73657465 0.37439129 4281827000
0.21701486 0.74259311 0.33716244 4294967091
0.18649636 0.78544503 0.31269738 4294967091
0.19271818 0.78516632 0.28412756 4294967091
0.26495463 0.80823898 0.4435696 4293138972
0.273148 0.79126322 0.44231936 4293138972
0.27755865 0.7961368 0.43539363 4293138972
0.22777194 0.76893222 0.41263184 4281827000
0.13763963 0.64125317 0.36799061 4281827000
0.17835185 0.68944329 0.38134968 4281827000
0.21857063 0.75204635 0.39618862 4281827000
0.29034835 0.80989581 0.41522056 4293138972
0.12725109 0.62974 0.32884753 4294967091
0.12449527 0.62827283 0.3190954 4294967091
0.29147109 0.80611742 0.40588346 4293138972
0.09248431 0.66261107 0.29013494 4294967091
0.21679766 0.74312663 0.33811364 4294967091
0.21557701 0.74805182 0.33490315 4294967091
0.22011575 0.73180109 0.26470095 4294967091
0.25556549 0.77745682 0.46638861 4293138972
0.26444927 0.81183815 0.44119129 4293138972
0.27559784 0.79549217 0.43892902 4293138972
0.28150812 0.79905337 0.42962554 4293138972
0.21355642 0.74230939 0.39536369 4281827000
0.22227575 0.76644129 0.39865628 4281827000
0.21500951 0.74752325 0.39413691 4281827000
0.19230732 0.70245719 0.37524459 4281827000
0.11217444 0.59462148 0.27567348 4294967091
0.21841575 0.74866515 0.34432369 4294967091
0.1909 0.78733492 0.29790086 4294967091
0.27330321 0.80308211 0.44009355 4293138972
0.22775425 0.76815331 0.41391903 4281827000
0.21602339 0.74262315 0.38272351 4281827000
0.29134858 0.80671364 0.41375065 4293138972
0.1209473 0.62753451 0.31484556 4294967091
0.2215901 0.75228089 0.3566367 4294967091
0.095823742 0.67143768 0.27838933 4294967091
0.18625773 0.7864064 0.3100495 4294967091
0.2256936 0.76248991 0.4129447 4281827000
0.17291535 0.68535501 0.38400668 4281827000
0.22046155 0.7596392 0.40004072 4281827000
0.13786191 0.63807762 0.35594055 4281827000
0.21001305 0.73076618 0.38990402 4281827000
0.18492229 0.69321901 0.37635347 4281827000
0.21852365 0.75475794 0.38736182 4281827000
0.21764997 0.75357699 0.38379017 4281827000
0.22066875 0.74572939 0.35221642 4294967091
0.21753976 0.73891187 0.34686854 4294967091
0.093154743 0.6682173 0.28643882 4294967091
0.21580942 0.74798548 0.33392024 4294967091
0.18896684 0.78273761 0.30687317 4294967091
0.19469926 0.7934792 0.27286339 4294967091
0.25433215 0.78211814 0.47553101 4293138972
0.25340304 0.80000168 0.4622331 4293138972
0.26795179 0.79445904 0.4508422 4293138972
0.26335901 0.80580389 0.45068595 4293138972
0.18168464 0.70225376 0.3902458 4281827000
0.22002435 0.75312597 0.40434641 4281827000
0.1327664 0.62853873 0.35724825 4294967091
0.21968813 0.75839186 0.39854282 4281827000
0.18745214 0.69961858 0.37951434 4281827000
0.13832816 0.63952726 0.34954673 4294967091
0.21812591 0.75390369 0.37495786 4281827000
0.22019093 0.74516511 0.36712936 4281827000
0.095118254 0.67728364 0.27572867 4294967091
0.21777685 0.74647254 0.33227578 4294967091
0.18866456 0.78343475 0.30907172 4294967091
0.22157015 0.72748899 0.26621598 4294967091
0.25400338 0.78072864 0.47464645 4293138972
0.25459498 0.78441137 0.4711037 4293138972
0.25426582 0.79894924 0.46856144 4293138972
0.26514831 0.80943573 0.44098961 4293138972
0.22384396 0.77507305 0.4008657 4281827000
0.22275753 0.77022535 0.39955148 4281827000
0.28657365 0.80804485 0.4207283 4293138972
0.21593539 0.77012247 0.3795251 4281827000
0.29115236 0.80782938 0.40325075 4293138972
0.18102363 0.7846939 0.32692707 4294967091
0.27156889 0.78957868 0.44698921 4293138972
0.27641031 0.79487371 0.43643162 4293138972
0.27929959 0.79686099 0.43254718 4293138972
0.28159407 0.80949509 0.42372569 4293138972
0.22273155 0.78009266 0.39737883 4281827000
0.20738715 0.72257394 0.38458785 4281827000
0.21823166 0.75749439 0.38669521 4281827000
0.21733177 0.75989217 0.38313696 4281827000
0.21782579 0.74144065 0.37854084 4281827000
0.2170395 0.75996566 0.37749138 4281827000
0.21845175 0.74189055 0.37529537 4281827000
0.22022606 0.75826061 0.35725111 4294967091
0.21684094 0.73986381 0.34336364 4294967091
0.21724652 0.74132448 0.33718473 4294967091
0.22381707 0.759009 0.41155642 4281827000
0.18023196 0.69798011 0.38855502 4281827000
0.13053627 0.62390864 0.35290059 4294967091
0.22134008 0.76848346 0.39684883 4281827000
0.22252448 0.77743196 0.39674702 4281827000
0.11421287 0.6128704 0.29737842 4294967091
0.22225773 0.74643159 0.35793704 4294967091
0.21756771 0.76185614 0.35259157 4294967091
0.21551619 0.74879432 0.33841899 4294967091
0.10917749 0.60069025 0.26747331 4294967091
0.21305341 0.74870837 0.32070452 4294967091
0.21343882 0.74764705 0.31845605 4294967091
0.19280471 0.79110992 0.28529945 4294967091
0.19338612 0.79218858 0.28127262 4294967091
0.2608453 0.79534078 0.45731264 4293138972
0.26507249 0.79479241 0.45268899 4293138972
0.25991556 0.81247485 0.44731674 4293138972
0.26815403 0.80651873 0.44193026 4293138972
0.14139645 0.64934576 0.37490034 4281827000
0.27948275 0.80033207 0.4322134 4293138972
0.17425276 0.6857394 0.38217187 4281827000
0.2836284 0.80773926 0.42492998 4293138972
0.2241542 0.77739024 0.4037483 4281827000
0.29286438 0.80278635 0.41262177 4293138972
0.21584012 0.72948599 0.34712589 4294967091
0.21427996 0.7333917 0.33961245 4294967091
0.26041543 0.79438329 0.45750794 4293138972
0.26132461 0.81260443 0.44123191 4293138972
0.2753031 0.80486542 0.43634984 4293138972
0.13407968 0.62952697 0.35502946 4294967091
0.21720397 0.76401192 0.38488734 4281827000
0.21333654 0.72978061 0.37787634 4281827000
0.13236578 0.63752687 0.33688375 4294967091
0.20819676 0.77869821 0.35745916 4281827000
0.18607378 0.77267927 0.33025485 4294967091
0.21363564 0.74568379 0.31477684 4294967091
0.19179448 0.786111 0.29992688 4294967091
0.19455178 0.78893358 0.28518087 4294967091
0.19056289 0.79309291 0.28084677 4294967091
0.19739909 0.79064411 0.26306733 4294967091
0.26289636 0.79631996 0.45438635 4293138972
0.27867714 0.79954726 0.43414572 4293138972
0.27896491 0.80729675 0.42999384 4293138972
0.28585604 0.79924977 0.42401212 4293138972
0.19317867 0.70652819 0.3789503 4281827000
0.19218574 0.70410204 0.37803784 4281827000
0.22154804 0.7436685 0.35908037 4294967091
0.092630379 0.66656035 0.28859875 4294967091
0.21367975 0.74980944 0.32615009 4294967091
0.25548416 0.80260122 0.46228752 4293138972
0.18222813 0.69987601 0.38799661 4281827000
0.13220295 0.62799871 0.35986081 4294967091
0.28362986 0.80753523 0.42649522 4293138972
0.21193041 0.73623538 0.38793606 4281827000
0.12542406 0.63565558 0.32406685 4294967091
0.09122017 0.66965896 0.29980513 4294967091
0.091832615 0.66802615 0.2908338 4294967091
0.21530913 0.72716099 0.34587163 4294967091
0.21460722 0.73312479 0.34144688 4294967091
0.092576779 0.67391169 0.28364143 4294967091
0.21083429 0.77026308 0.34339195 4281827000
0.26225489 0.7941491 0.45597425 4293138972
0.25508803 0.80481565 0.45670795 4293138972
0.11123892 0.59902722 0.27836537 4294967091
0.11013851 0.59946835 0.2632764 4294967091
0.21285929 0.74626827 0.3159039 4294967091
0.19014111 0.78711843 0.30223885 4294967091
0.25923252 0.80387652 0.45610836 4293138972
0.26318157 0.80977309 0.4453049 4293138972
0.14216393 0.65019393 0.37214217 4281827000
0.20731434 0.7234872 0.38557863 4281827000
0.21756475 0.75584155 0.38506216 4281827000
0.29269186 0.80254811 0.40977681 4293138972
0.12723392 0.63105702 0.3258948 4294967091
0.19581021 0.78924656 0.36123931 4294967091
0.19935806 0.78598303 0.35740963 4281827000
0.19838677 0.78627628 0.35337979 4294967091
0.090609901 0.6726141 0.29182777 4294967091
0.095495105 0.67820644 0.26951218 4294967091
0.25395861 0.77838486 0.474042 4293138972
0.25304979 0.80495006 0.45601717 4293138972
0.26697943 0.80247545 0.44782579 4293138972
0.14564936 0.65565258 0.37761715 4281827000
0.13130157 0.63040709 0.37029231 4281827000
0.12849456 0.63695216 0.32985607 4294967091
0.21803866 0.74851364 0.37614402 4281827000
0.2186206 0.74032217 0.37021884 4281827000
0.091541328 0.66635329 0.3077215 4294967091
0.1163893 0.62027442 0.30291793 4294967091
0.22046795 0.74203259 0.3570832 4294967091
0.088688776 0.67575216 0.29178068 4294967091
0.21852356 0.74662077 0.34758067 4294967091
0.21567249 0.76301104 0.34742594 4294967091
0.21363202 0.73170608 0.3360104 4294967091
0.18919133 0.78463954 0.30955499 4294967091
0.19103275 0.78525001 0.30073291 4294967091
0.21917714 0.73179537 0.27704418 4294967091
0.27687198 0.78918558 0.43177184 4293138972
0.21646123 0.76417482 0.3727513 4281827000
0.11674585 0.62229359 0.30659008 4294967091
0.19502777 0.79320717 0.27671021 4294967091
0.28172171 0.7988264 0.42926252 4293138972
0.27918258 0.8083005 0.42700204 4293138972
0.22188149 0.77343857 0.39657518 4281827000
0.20590223 0.78413224 0.37280095 4281827000
0.09174116 0.66548795 0.30554265 4294967091
0.11666573 0.61167777 0.30439654 4294967091
0.18675791 0.76414084 0.32217917 4294967091
0.217608 0.73667735 0.32757416 4294967091
0.21574628 0.73928553 0.30148256 4294967091
0.21456812 0.73794484 0.29124582 4294967091
0.27918169 0.79799342 0.43333557 4293138972
0.13641346 0.64002413 0.3651914 4281827000
0.2854377 0.81195593 0.41931266 4293138972
0.12552819 0.62682396 0.32378483 4294967091
0.21479556 0.75409335 0.34106365 4294967091
0.096392192 0.67638975 0.27906319 4294967091
0.22858872 0.76920491 0.41712627 4281827000
0.22742575 0.76610988 0.41658399 4281827000
0.12755817 0.63241714 0.32962978 4294967091
0.21909067 0.75545895 0.37350461 4281827000
0.124659 0.62375772 0.31862676 4294967091
0.21846838 0.73928988 0.36605927 4281827000
0.19687086 0.78755319 0.35932258 4294967091
0.19506922 0.78871369 0.35786268 4294967091
0.093592584 0.66503239 0.28594744 4294967091
0.21702248 0.74488413 0.34034121 4294967091
0.18690614 0.78450781 0.33575675 4294967091
0.19215089 0.78596348 0.30674943 4294967091
0.12803839 0.62536716 0.36742017 4281827000
0.28359422 0.81018281 0.42167568 4293138972
0.29107547 0.80735672 0.41377151 4293138972
0.25418445 0.78301591 0.46838263 4293138972
0.22774699 0.7680608 0.41547072 4281827000
0.20638984 0.7274465 0.39258903 4281827000
0.21594685 0.74959213 0.39373809 4281827000
0.21796846 0.76142883 0.36389434 4281827000
0.19723508 0.78736377 0.35517511 4294967091
0.19543618 0.78743988 0.35080022 4294967091
0.21467951 0.74892092 0.33678409 4294967091
0.18650798 0.76564616 0.32096097 4294967091
0.21462789 0.73577702 0.28395903 4294967091
0.19518442 0.7926138 0.27202833 4294967091
0.22274661 0.72999394 0.26748112 4294967091
0.25769794 0.79541385 0.45950511 4293138972
0.27794823 0.80900759 0.42820516 4293138972
0.091852538 0.66223931 0.30230197 4294967091
0.21949777 0.73536271 0.35257494 4294967091
0.091766186 0.66681015 0.29190499 4294967091
0.19651817 0.78718466 0.35212645 4294967091
0.087033704 0.67611003 0.28513443 4294967091
0.21467197 0.73473001 0.33844465 4294967091
0.21295547 0.75193864 0.33225951 4294967091
0.19167374 0.78001106 0.29735139 4294967091
0.26989403 0.80624098 0.44121256 4293138972
0.13972287 0.64576143 0.37610823 4281827000
0.27452716 0.80704743 0.43385249 4293138972
0.27955714 0.80778754 0.42775583 4293138972
0.22012082 0.75563365 0.40110523 4281827000
0.13625053 0.64904523 0.34226185 4294967091
0.28890449 0.81100839 0.41121429 4293138972
0.119854 0.61872363 0.31176028 4294967091
0.19209984 0.78918529 0.35232803 4294967091
0.19415158 0.78735059 0.34869114 4294967091
0.090903826 0.67571068 0.28310668 4294967091
0.21496429 0.73313522 0.33343279 4294967091
0.13723135 0.63800246 0.35253698 4294967091
0.22012594 0.76286077 0.39371112 4281827000
0.18857452 0.69674617 0.36945117 4281827000
0.11817013 0.62527704 0.30994526 4294967091
0.22137725 0.74673414 0.36495203 4281827000
0.1182565 0.61456656 0.30682424 4294967091
0.19976479 0.78483957 0.35309649 4294967091
0.21550304 0.7358647 0.33990231 4294967091
0.18554777 0.77000743 0.33004966 4294967091
0.19405358 0.78978163 0.28160319 4294967091
0.19896498 0.79540884 0.26556459 4294967091
0.24417336 0.80282003 0.47505254 4293138972
0.24668524 0.80333424 0.47360891 4293138972
0.24690588 0.80178416 0.47140545 4293138972
0.24541901 0.80253708 0.46956158 4293138972
0.24582702 0.80346274 0.4717513 4293138972
0.2426064 0.80270934 0.47008729 4293138972
0.24370115 0.8042298 0.46217644 4293138972
0.24628207 0.80343032 0.46022645 4293138972
0.25407758 0.80273038 0.46001694 4293138972
0.20761596 0.73364478 0.39659244 4281827000
0.21214801 0.73588246 0.39105719 4281827000
0.21607594 0.7423529 0.37932664 4281827000
0.21502946 0.76710141 0.38054463 4281827000
0.13035946 0.63509661 0.33267838 4294967091
0.11629876 0.61272603 0.30188426 4294967091
0.22000399 0.74188733 0.35399914 4294967091
0.21481419 0.76332057 0.35241407 4281827000
0.26082036 0.80586457 0.45193264 4293138972
0.22208631 0.75836593 0.40767601 4281827000
0.22014341 0.76320332 0.39962333 4281827000
0.28507724 0.81230557 0.42077887 4293138972
0.11948175 0.62668675 0.31248266 4294967091
0.21379128 0.75627398 0.33821967 4294967091
0.26608941 0.81160265 0.44137627 4293138972
0.27189013 0.80649757 0.44008499 4293138972
0.19139969 0.79027158 0.35713041 4294967091
0.19246811 0.78969842 0.35843322 4294967091
0.20113683 0.78467798 0.35742876 4281827000
0.21961585 0.7424773 0.35320789 4294967091
0.19561166 0.78705049 0.35191005 4294967091
0.19409691 0.79788333 0.26383549 4294967091
0.1375609 0.64535773 0.3738471 4281827000
0.27888638 0.80570656 0.43083128 4293138972
0.20083 0.78653711 0.37178701 4281827000
0.21640803 0.73127085 0.36157766 4281827000
0.2155925 0.76058996 0.34545267 4294967091
0.095489778 0.67536712 0.27741161 4294967091
0.18941396 0.79207504 0.29181248 4294967091
0.26912147 0.8000493 0.44426626 4293138972
0.26666108 0.80583036 0.44273609 4293138972
0.14117442 0.64991665 0.38903049 4281827000
0.18420468 0.6973505 0.3820926 4281827000
0.28451645 0.80963433 0.42220926 4293138972
0.2848478 0.81030762 0.42090118 4293138972
0.21811649 0.7558282 0.37474361 4281827000
0.12468771 0.6326257 0.32248598 4294967091
0.11969639 0.62926966 0.31431332 4294967091
0.21192785 0.75138265 0.32899144 4294967091
0.2863 0.81202847 0.41878536 4293138972
0.28798592 0.81111318 0.40738282 4293138972
0.28868806 0.80982178 0.40563911 4293138972
0.21650979 0.73388463 0.34858909 4294967091
0.27198881 0.80856961 0.43650222 4293138972
0.27534077 0.80689752 0.43228078 4293138972
0.21493785 0.73552567 0.3805224 4281827000
0.21539739 0.7686196 0.37578446 4281827000
0.12458219 0.62201667 0.32032338 4294967091
0.22039546 0.74261856 0.3557266 4294967091
0.21902116 0.73999542 0.34895223 4294967091
0.21516329 0.73382592 0.34358117 4294967091
0.10909856 0.6002304 0.26490799 4294967091
0.18677315 0.782206 0.31476417 4294967091
0.1890284 0.78234184 0.31141397 4294967091
0.19284292 0.78606367 0.28890958 4294967091
0.25364104 0.77996677 0.47538763 4293138972
0.25712556 0.79636091 0.4600715 4293138972
0.26274663 0.80629647 0.44821656 4293138972
0.28291997 0.80913293 0.42313823 4293138972
0.11636565 0.61527342 0.30125394 4294967091
0.091264002 0.6643607 0.29784989 4294967091
0.20280087 0.78066492 0.35035509 4281827000
0.18602245 0.77496105 0.33128893 4294967091
0.21623799 0.73516965 0.29095837 4294967091
0.22288387 0.73034924 0.26617578 4294967091
0.24561018 0.80348808 0.47517791 4293138972
0.24249887 0.80671924 0.46397644 4293138972
0.24398771 0.80516982 0.46189559 4293138972
0.13288109 0.63288093 0.37501028 4281827000
0.22694036 0.76981664 0.41116893 4281827000
0.19593312 0.77816421 0.41766784 4281827000
0.20099211 0.7760191 0.38070971 4281827000
0.1943071 0.788486 0.35333017 4294967091
0.1930273 0.78759277 0.34884477 4294967091
0.21252505 0.76505035 0.34430349 4294967091
0.091053672 0.67452818 0.28379977 4294967091
0.1863019 0.76312971 0.32645649 4294967091
0.19149333 0.79353422 0.27813688 4294967091
0.25411919 0.78009033 0.47697145 4293138972
0.26410872 0.8102259 0.43969578 4293138972
0.2656219 0.81022543 0.43909886 4293138972
0.28303051 0.80812228 0.42745507 4293138972
0.28980243 0.8110581 0.41115901 4293138972
0.18425074 0.77887076 0.33402699 4294967091
0.19168286 0.78128397 0.29885793 4294967091
0.27230635 0.80874819 0.43467 4293138972
0.27799478 0.7969346 0.4344562 4293138972
0.27726278 0.80885273 0.42756385 4293138972
0.27810061 0.80911952 0.42647791 4293138972
0.12885514 0.63105941 0.33180097 4294967091
0.19902106 0.79538739 0.26406148 4294967091
0.26982391 0.80127585 0.44377273 4293138972
0.2236809 0.77234286 0.40246725 4281827000
0.13587366 0.63640839 0.35628361 4281827000
0.20115454 0.78510779 0.37126464 4281827000
0.20594577 0.78390867 0.37428653 4281827000
0.20372425 0.78377157 0.36997315 4281827000
0.21599689 0.74820638 0.33982524 4294967091
0.18490255 0.77821136 0.33737069 4294967091
0.18631986 0.77513081 0.32732958 4294967091
0.18630239 0.76799697 0.32334188 4294967091
0.18703599 0.78504026 0.31350154 4294967091
0.19663331 0.7983104 0.26239973 4294967091
0.27111974 0.80096477 0.4426643 4293138972
0.28052399 0.79325998 0.42817086 4293138972
0.21067357 0.73411262 0.39114991 4281827000
0.22255777 0.77780467 0.39996672 4281827000
0.22137855 0.74670935 0.36332357 4294967091
0.22136247 0.75554234 0.36281165 4281827000
0.20663832 0.77905154 0.35509568 4281827000
0.21839412 0.75521332 0.34568024 4294967091
0.18363415 0.78615707 0.31294715 4294967091
0.25464612 0.77932745 0.46582344 4293138972
0.25439537 0.77837938 0.46648932 4293138972
0.2665675 0.811759 0.43977582 4293138972
0.20403774 0.78439867 0.41024178 4281827000
0.28842887 0.81214625 0.41121954 4293138972
0.088631369 0.67532164 0.28060713 4294967091
0.18683466 0.7826004 0.31103453 4294967091
0.24490257 0.80305916 0.46314538 4293138972
0.24752577 0.80409849 0.46223137 4293138972
0.25158572 0.80377883 0.4577612 4293138972
0.22310278 0.75999439 0.41033858 4281827000
0.13651326 0.63585758 0.34843922 4294967091
0.21681637 0.76465702 0.38697103 4281827000
0.12474047 0.62450755 0.32013929 4294967091
0.20023485 0.78680545 0.37476379 4281827000
0.12207074 0.62906533 0.31707218 4294967091
0.19925657 0.777237 0.3740052 4281827000
0.21896882 0.74734074 0.34704748 4294967091
0.21713473 0.7567305 0.34519136 4294967091
0.2129906 0.74956757 0.33642179 4294967091
0.18645215 0.76558399 0.32749346 4294967091
0.18797357 0.79130507 0.29710528 4294967091
0.24226141 0.80693269 0.46709639 4293138972
0.24322791 0.80556571 0.46131161 4293138972
0.26176113 0.80796832 0.44803035 4293138972
0.28401229 0.80892771 0.42299369 4293138972
0.21931945 0.76890451 0.39229187 4281827000
0.12603799 0.62544268 0.32706314 4294967091
0.28825077 0.81050777 0.40564752 4293138972
0.12778462 0.63427699 0.32744187 4294967091
0.12525567 0.63042206 0.32333848 4294967091
0.11618257 0.61924946 0.304245 4294967091
0.092396162 0.67254066 0.27009553 4294967091
0.11310343 0.59248793 0.26751038 4294967091
0.21176662 0.75047052 0.33202478 4294967091
0.19058454 0.79296952 0.28211519 4294967091
0.19790563 0.797526 0.26322639 4294967091
0.26010665 0.79406762 0.45634237 4293138972
0.26715592 0.80743611 0.44034398 4293138972
0.19592582 0.78799415 0.36891073 4281827000
0.19530624 0.78863931 0.36574551 4281827000
0.22055283 0.75086892 0.35042652 4294967091
0.18590483 0.76428074 0.32482448 4294967091
0.094809815 0.67550033 0.2660329 4294967091
0.18149345 0.78511184 0.32336417 4294967091
0.21405366 0.73592031 0.28526729 4294967091
0.24569206 0.80346018 0.46215427 4293138972
0.12667115 0.63029355 0.32693231 4294967091
0.1228147 0.62161678 0.31506303 4294967091
0.11238482 0.61308962 0.29391587 4294967091
0.087842084 0.67589217 0.2866585 4294967091
0.2148619 0.75078821 0.34076723 4294967091
0.24147293 0.80558521 0.46310908 4293138972
0.26113662 0.8094905 0.44836447 4293138972
0.21954712 0.76691997 0.39460272 4281827000
0.21529607 0.73663992 0.37561652 4281827000
0.22052902 0.75428969 0.36435601 4281827000
0.21886604 0.74070764 0.35014257 4294967091
0.087205917 0.67610079 0.29125831 4294967091
0.18944156 0.79342014 0.28325561 4294967091
0.27009949 0.79002285 0.4472664 4293138972
0.2190861 0.75666511 0.40160254 4281827000
0.21640922 0.76204556 0.37494579 4281827000
0.19629055 0.7731216 0.39235097 4281827000
0.18853886 0.78921336 0.35701999 4294967091
0.11383997 0.61494172 0.29696482 4294967091
0.11191147 0.60892344 0.29034373 4294967091
0.2130893 0.75013202 0.32785198 4294967091
0.21441339 0.73711729 0.28916198 4294967091
0.21504596 0.73657799 0.2872096 4294967091
0.19290216 0.79354388 0.27295715 4294967091
0.19455141 0.79295832 0.27344427 4294967091
0.24472025 0.80195814 0.47073427 4293138972
0.2468168 0.80227292 0.47087806 4293138972
0.25045779 0.80327892 0.46051481 4293138972
0.26666826 0.80186075 0.44556224 4293138972
0.22506708 0.77093863 0.40786374 4281827000
0.21945216 0.74097687 0.36623368 4281827000
0.0883573 0.67567432 0.29537719 4294967091
0.21944566 0.74576247 0.34893799 4294967091
0.18337493 0.77325583 0.3276149 4294967091
0.24239743 0.80584377 0.46451202 4293138972
0.25364208 0.8055476 0.4555628 4293138972
0.29136869 0.80523634 0.41039872 4293138972
0.18797849 0.7904014 0.36363941 4294967091
0.087372467 0.67684698 0.29379269 4294967091
0.18194659 0.78546745 0.32169074 4294967091
0.24301864 0.80548799 0.47227877 4293138972
0.24411467 0.8040095 0.46091121 4293138972
0.25451797 0.80240136 0.4597865 4293138972
0.26156244 0.80905098 0.44747311 4293138972
0.28316477 0.7972222 0.42673889 4293138972
0.18889436 0.77531248 0.41068372 4281827000
0.11628845 0.62152237 0.30472508 4294967091
0.18575527 0.76655328 0.32903749 4294967091
0.18590331 0.76523906 0.32908738 4294967091
0.18664475 0.76123703 0.32763922 4294967091
0.10114444 0.68087745 0.26666096 4294967091
0.21785086 0.73313349 0.26697615 4294967091
0.26187903 0.79442376 0.45473859 4293138972
0.2816852 0.81053752 0.42221501 4293138972
0.21729197 0.76282793 0.38641438 4281827000
0.13660243 0.64233369 0.34369671 4294967091
0.12841208 0.63887066 0.33121726 4294967091
0.087192848 0.67600375 0.29660463 4294967091
0.11117914 0.60510474 0.28641099 4294967091
0.18666738 0.77373111 0.32647547 4294967091
0.21477121 0.73117989 0.31783307 4294967091
0.18459053 0.785106 0.31592128 4294967091
0.21418449 0.73963815 0.29347172 4294967091
