# .PCD v0.7 - Point Cloud Data file format
VERSION 0.7
FIELDS x y z rgba
SIZE 4 4 4 4
TYPE F F F U
COUNT 1 1 1 1
WIDTH 1086
HEIGHT 1
VIEWPOINT 0 0 0 1 0 0 0
POINTS 1086
DATA ascii
0.092747517 0.61402255 0.33296615 4281827000
0.092342772 0.61274725 0.33061931 4281827000
0.094355971 0.66318238 0.27951822 4294967091
0.23668611 0.82764071 0.47553167 4293138972
0.23963568 0.78767926 0.45241168 4281827000
0.23099777 0.78615361 0.44455439 4281827000
0.19147289 0.77178675 0.2801725 4294967091
0.1074646 0.64938426 0.39093634 4281827000
0.094159305 0.66355485 0.38161212 4281827000
0.099196032 0.64192599 0.37368613 4281827000
0.093036793 0.61511046 0.33422425 4281827000
0.088860549 0.6064769 0.31694478 4281827000
0.096488684 0.66039962 0.26209313 4294967091
0.25283867 0.82153511 0.46970659 4293138972
0.25099698 0.80534714 0.46525037 4281827000
0.21991551 0.78924048 0.42903951 4281827000
0.24204388 0.75397617 0.42153156 4281827000
0.21178702 0.75133699 0.41626519 4281827000
0.11082734 0.67974895 0.40017688 4281827000
0.10278213 0.68718648 0.39236066 4281827000
0.11364266 0.65870535 0.3996473 4281827000
0.19237822 0.77095348 0.28269911 4294967091
0.1913408 0.77138495 0.27743638 4294967091
0.10666399 0.65436798 0.39024067 4281827000
0.10162375 0.64985061 0.38313419 4281827000
0.090039335 0.67452782 0.37198696 4281827000
0.10404719 0.63996118 0.38034171 4281827000
0.097622745 0.6485315 0.37702844 4281827000
0.094546318 0.6624949 0.36287436 4281827000
0.092981443 0.67039782 0.35981327 4294967091
0.095627777 0.61789018 0.33989939 4281827000
0.09003745 0.60663253 0.31779277 4281827000
0.26461962 0.81608826 0.47111416 4293138972
0.2016834 0.77195776 0.33989847 4294967091
0.20486081 0.76807028 0.32505175 4294967091
0.10377033 0.66868544 0.39752546 4281827000
0.10337334 0.67126626 0.39696389 4281827000
0.10123175 0.67268449 0.39295262 4281827000
0.1002207 0.67352295 0.39054355 4281827000
0.096510507 0.66689283 0.3883841 4281827000
0.096417747 0.67013258 0.38638869 4281827000
0.096268736 0.66689086 0.3847087 4281827000
0.094786525 0.66841114 0.38477179 4281827000
0.094236329 0.66990316 0.38457227 4281827000
0.097697176 0.67686355 0.38052452 4281827000
0.12995641 0.63088042 0.37770209 4294967091
0.095886998 0.65986359 0.38506708 4281827000
0.096845366 0.65847325 0.38383913 4281827000
0.0945637 0.66532981 0.38189849 4281827000
0.10557324 0.64076298 0.3817803 4281827000
0.10276094 0.64132047 0.37977877 4281827000
0.098255038 0.64701879 0.37369502 4281827000
0.094637081 0.6388495 0.365246 4281827000
0.091188259 0.61227804 0.32810497 4281827000
0.0982145 0.65738517 0.29251045 4294967091
0.09387432 0.66212171 0.28299561 4294967091
0.2377664 0.79662204 0.45689967 4281827000
0.24936116 0.78512716 0.45440155 4281827000
0.22184189 0.78865224 0.43180141 4281827000
0.13059616 0.6558606 0.40574056 4281827000
0.12058337 0.65772963 0.40361986 4281827000
0.11409827 0.66877609 0.40358195 4281827000
0.11203894 0.66920656 0.40384731 4281827000
0.10984744 0.67141038 0.40195698 4281827000
0.11083751 0.67499274 0.39953044 4281827000
0.10628917 0.67440587 0.39988211 4281827000
0.19383232 0.77122909 0.29126498 4294967091
0.19362228 0.77136189 0.28728288 4294967091
0.13202898 0.63804656 0.39076081 4281827000
0.098887779 0.66947144 0.39137462 4281827000
0.10113555 0.67749363 0.38643605 4281827000
0.098501377 0.6716519 0.38785514 4281827000
0.09604463 0.67514378 0.37977728 4281827000
0.093817867 0.67042476 0.38150975 4281827000
0.094508961 0.67525405 0.37845063 4281827000
0.093890987 0.66870832 0.37691265 4281827000
0.092873044 0.67264014 0.37645444 4281827000
0.097324468 0.65353537 0.38170943 4281827000
0.1278328 0.63096988 0.36793274 4281827000
0.096033387 0.65659946 0.37596947 4281827000
0.093603335 0.66959512 0.37212098 4281827000
0.091690682 0.67045766 0.36661553 4281827000
0.1039781 0.67105252 0.3292591 4294967091
0.097347073 0.65819091 0.30047607 4294967091
0.097768918 0.65830135 0.29570577 4294967091
0.23997483 0.82478905 0.47087657 4293138972
0.13333482 0.66457623 0.41012093 4281827000
0.11675926 0.67301363 0.40608934 4281827000
0.11302708 0.67257124 0.40360522 4281827000
0.11858001 0.64852834 0.39586297 4281827000
0.10240777 0.67736495 0.39131796 4281827000
0.10144755 0.68155122 0.38804919 4281827000
0.10033242 0.67861164 0.38754877 4281827000
0.099644646 0.67993814 0.38201505 4281827000
0.12974259 0.63137466 0.38007396 4281827000
0.09924306 0.66768193 0.34245983 4294967091
0.10429457 0.67117298 0.33360782 4294967091
0.095628731 0.61426914 0.33419368 4281827000
0.094117194 0.61351919 0.33349657 4281827000
0.093508489 0.61275584 0.33182913 4281827000
0.098666541 0.65749192 0.29656714 4294967091
0.094972074 0.65975559 0.28033081 4294967091
0.22447626 0.78046983 0.43556333 4281827000
0.23564586 0.76427525 0.42967251 4281827000
0.23211071 0.73845971 0.41280502 4281827000
0.12205585 0.67180693 0.40648651 4281827000
0.11929923 0.67432511 0.40630752 4281827000
0.11512348 0.68381059 0.40031797 4281827000
0.11434094 0.67228365 0.40305686 4281827000
0.11276208 0.68007761 0.4011493 4281827000
0.10888366 0.67854089 0.39989063 4281827000
0.10681114 0.68373686 0.3946065 4281827000
0.19619015 0.76981783 0.29589662 4294967091
0.1346083 0.63640183 0.38992617 4281827000
0.10340068 0.66538596 0.39488187 4281827000
0.13359013 0.63488489 0.38807547 4281827000
0.10382237 0.66255593 0.39266536 4281827000
0.10068011 0.68206036 0.38478345 4281827000
0.10100143 0.66660559 0.3902199 4281827000
0.097284772 0.67728686 0.38223219 4281827000
0.11079085 0.64360625 0.3844263 4281827000
0.10652531 0.64629555 0.38626599 4281827000
0.10441435 0.65107721 0.38526225 4281827000
0.12967825 0.63049078 0.37598816 4294967091
0.093259737 0.66533518 0.3810274 4281827000
0.089933991 0.6541633 0.35686323 4281827000
0.095602609 0.61543387 0.33705625 4281827000
0.094774164 0.66173303 0.29008961 4294967091
0.24766842 0.7676388 0.43739149 4281827000
0.21955466 0.79691017 0.42605606 4281827000
0.16817349 0.74089992 0.39113736 4281827000
0.13338543 0.67936212 0.41303149 4281827000
0.1163341 0.69242811 0.40246695 4281827000
0.11942714 0.68288529 0.40396506 4281827000
0.14245197 0.64496535 0.39983904 4281827000
0.11131863 0.68443632 0.39928737 4281827000
0.10866684 0.68445253 0.39593765 4281827000
0.11675417 0.64981437 0.39589649 4281827000
0.13217694 0.6326797 0.38458949 4281827000
0.12816787 0.63019192 0.36991009 4281827000
0.10290691 0.63924021 0.37869528 4281827000
0.092040807 0.67391533 0.36330116 4294967091
0.096813634 0.65777636 0.31818122 4294967091
0.23629424 0.84286714 0.43838629 4293138972
0.23594898 0.78171331 0.44734281 4281827000
0.22602133 0.79660195 0.43834576 4281827000
0.20031215 0.77600294 0.34798187 4281827000
0.123648 0.68299681 0.40653867 4281827000
0.11640494 0.68613178 0.4005664 4281827000
0.13766688 0.63704288 0.39184245 4281827000
0.13285926 0.63794547 0.39199147 4281827000
0.13359387 0.63283879 0.38582069 4281827000
0.11329376 0.64271474 0.38486511 4281827000
0.10112017 0.65170789 0.38407761 4281827000
0.095272534 0.65811563 0.38088101 4281827000
0.092481405 0.67214233 0.37259656 4281827000
0.12754144 0.6313659 0.36501604 4281827000
0.097921357 0.66062933 0.3515743 4281827000
0.088626593 0.62861812 0.34307402 4281827000
0.24099031 0.81864935 0.46342123 4293138972
0.24577983 0.76360148 0.43198329 4281827000
0.13957186 0.67796403 0.41331547 4281827000
0.11492655 0.68550247 0.40431139 4281827000
0.11540771 0.64527541 0.39011574 4281827000
0.09817937 0.6798805 0.3776437 4281827000
0.10371627 0.67255491 0.33279583 4294967091
0.097282395 0.65521312 0.27165189 4294967091
0.18542959 0.7807973 0.26480997 4294967091
0.18706566 0.77752852 0.26121727 4294967091
0.21675768 0.79203647 0.42056388 4281827000
0.23280641 0.74109197 0.41492039 4281827000
0.18736281 0.76737618 0.39763412 4281827000
0.11571022 0.6541 0.39890671 4281827000
0.13003455 0.63230228 0.38183823 4281827000
0.10611398 0.64105797 0.38321689 4281827000
0.09314733 0.6643132 0.37158462 4281827000
0.096705124 0.65615863 0.37073076 4281827000
0.20508073 0.74904048 0.41345164 4281827000
0.19814499 0.75697553 0.4131391 4281827000
0.20431918 0.7688067 0.32725531 4294967091
0.20523609 0.76752687 0.32082763 4294967091
0.12873289 0.64737356 0.39948994 4281827000
0.097348131 0.65602165 0.36336887 4281827000
0.1004053 0.63127226 0.36472631 4281827000
0.093947425 0.63151819 0.35398477 4281827000
0.097370006 0.65574783 0.27922779 4294967091
0.096490532 0.65649813 0.27198145 4294967091
0.2376148 0.84555161 0.45250502 4293138972
0.17893511 0.74444598 0.39811695 4281827000
0.13403155 0.67784899 0.41351527 4281827000
0.20652808 0.76678753 0.32301268 4294967091
0.11110524 0.69094157 0.39761159 4281827000
0.1037132 0.68522727 0.38860133 4281827000
0.096815623 0.65886992 0.36200434 4281827000
0.10164138 0.63109702 0.36569518 4281827000
0.097627245 0.65623415 0.28489444 4294967091
0.24795651 0.7823385 0.45326737 4281827000
0.2331263 0.7802316 0.44479805 4281827000
0.24413505 0.7617327 0.42940456 4281827000
0.2038758 0.76887888 0.32944557 4294967091
0.11697419 0.68128318 0.40761125 4281827000
0.20522024 0.76662695 0.31693879 4294967091
0.19768634 0.769333 0.3000232 4294967091
0.19415294 0.7699011 0.28854686 4294967091
0.11038912 0.64630765 0.38656029 4281827000
0.093311802 0.66865039 0.37959254 4281827000
0.10385646 0.6374476 0.37634307 4281827000
0.092276216 0.66809005 0.36499286 4281827000
0.10300039 0.63641036 0.37434968 4281827000
0.093482561 0.66258901 0.36677563 4281827000
0.093157478 0.6701197 0.36057431 4294967091
0.091567934 0.63602829 0.35847583 4281827000
0.097016186 0.61907256 0.3436096 4281827000
0.099188626 0.65734744 0.2987783 4294967091
0.099578083 0.65598196 0.29112411 4294967091
0.099064112 0.65486467 0.28558311 4294967091
0.0981557 0.65519607 0.28310442 4294967091
0.24129978 0.78677827 0.45206669 4281827000
0.13923106 0.65957159 0.4089742 4281827000
0.10740636 0.68175817 0.39856747 4281827000
0.089276336 0.65103203 0.3333368 4281827000
0.080117606 0.62376118 0.32846785 4281827000
0.080641367 0.62212837 0.32545882 4281827000
0.22256517 0.78768098 0.43309718 4281827000
0.14564694 0.68079668 0.41361153 4281827000
0.12793176 0.6872744 0.41124058 4281827000
0.10742018 0.67682594 0.39753512 4281827000
0.099990405 0.67837799 0.38598791 4281827000
0.099882364 0.65924388 0.38878193 4281827000
0.094871506 0.67074209 0.37636027 4281827000
0.09347982 0.65814227 0.37424383 4281827000
0.10101438 0.62968957 0.36361504 4281827000
0.10188556 0.62894034 0.35972273 4281827000
0.10566787 0.66866708 0.33212942 4294967091
0.10478572 0.66730374 0.32297879 4294967091
0.10168857 0.66304797 0.3234452 4294967091
0.089914583 0.65103495 0.33119491 4281827000
0.08298067 0.64389408 0.33488932 4281827000
0.097338669 0.65611565 0.30268368 4294967091
0.24445897 0.78277069 0.45130625 4281827000
0.23857674 0.7819047 0.44865626 4281827000
0.1247355 0.66749716 0.40872911 4281827000
0.11585601 0.68884933 0.39991996 4281827000
0.11991975 0.66092741 0.40389866 4281827000
0.12081599 0.64295477 0.38992524 4281827000
0.097075522 0.67476171 0.38032603 4281827000
0.10660131 0.63851929 0.37260172 4281827000
0.10263775 0.63522184 0.37235078 4281827000
0.097352579 0.65184158 0.36557436 4281827000
0.09374889 0.63400424 0.35481784 4281827000
0.24959552 0.87579614 0.43921629 4293138972
0.17070368 0.74796408 0.38599062 4281827000
0.14137734 0.68033594 0.41436669 4281827000
0.12182985 0.65899736 0.40504909 4281827000
0.11837815 0.6566568 0.40201092 4281827000
0.18761824 0.77627212 0.26413116 4294967091
0.10469747 0.63664913 0.37685743 4281827000
0.095269956 0.66195989 0.36135781 4281827000
0.084906958 0.62386578 0.33159032 4281827000
0.24005762 0.76501715 0.43025008 4281827000
0.23871499 0.75814599 0.42516556 4281827000
0.22048366 0.76398873 0.42667592 4281827000
0.18741503 0.75471997 0.4001601 4281827000
0.12352445 0.65152085 0.40082145 4281827000
0.10603283 0.67925376 0.39492303 4281827000
0.12229659 0.64762133 0.39652523 4281827000
0.10195966 0.68010396 0.38874531 4281827000
0.10428764 0.63781488 0.37890592 4281827000
0.095944382 0.65815246 0.36558986 4281827000
0.094952054 0.66350305 0.3531858 4294967091
0.093952633 0.6701594 0.31007624 4294967091
0.093390912 0.66351932 0.29290235 4294967091
0.097180493 0.65535283 0.27542517 4294967091
0.096454807 0.65640807 0.26925308 4294967091
0.094535343 0.66148782 0.36609912 4281827000
0.096278526 0.66043061 0.36417142 4281827000
0.10535683 0.6848765 0.3323203 4294967091
0.10506526 0.68123937 0.32959706 4294967091
0.097168773 0.67179239 0.31216803 4294967091
0.09805876 0.65434617 0.27825692 4294967091
0.23869993 0.8056795 0.45982844 4281827000
0.23552006 0.83666497 0.43674314 4293138972
0.22099906 0.7837255 0.43269718 4281827000
0.20657998 0.76938826 0.41661188 4281827000
0.19600518 0.76194668 0.40761966 4281827000
0.19104496 0.76119661 0.4050073 4281827000
0.20009975 0.7802912 0.35805514 4281827000
0.13288495 0.66820151 0.41090971 4281827000
0.12091587 0.64679629 0.39506948 4281827000
0.093728155 0.65785486 0.37572506 4281827000
0.092799105 0.6668027 0.36372983 4281827000
0.093122974 0.67253298 0.35662031 4294967091
0.083718225 0.62010521 0.32519495 4281827000
0.093752563 0.66246402 0.28715143 4294967091
0.24714288 0.78783923 0.45515004 4281827000
0.24813087 0.78014374 0.45179629 4281827000
0.24907205 0.77037686 0.44115573 4281827000
0.22812712 0.78306085 0.4419944 4281827000
0.20486392 0.7565403 0.41467792 4281827000
0.12880981 0.6702705 0.41042012 4281827000
0.2019953 0.76764876 0.30905125 4294967091
0.13030727 0.63298762 0.38346639 4281827000
0.1030762 0.66953337 0.33762506 4294967091
0.10336162 0.67129606 0.33589107 4294967091
0.081723832 0.61859208 0.32316273 4281827000
0.098619916 0.6542815 0.28256804 4294967091
0.25410739 0.81096715 0.46661878 4293138972
0.21384062 0.7793988 0.42165387 4281827000
0.11978543 0.64928168 0.39708689 4281827000
0.13251998 0.63607174 0.38917178 4281827000
0.13156006 0.63087189 0.38129038 4281827000
0.09327025 0.67487752 0.37165418 4281827000
0.10361244 0.67684954 0.33599019 4294967091
0.10047375 0.62917674 0.36203098 4281827000
0.10648655 0.66837287 0.32811338 4294967091
0.10566844 0.66761702 0.3253535 4294967091
0.091379777 0.65173793 0.33727166 4281827000
0.10440727 0.66244632 0.3154963 4294967091
0.083981238 0.64452046 0.33123809 4281827000
0.099406347 0.66049278 0.30993071 4294967091
0.092193149 0.61142755 0.32856539 4281827000
0.088258691 0.60889864 0.3206211 4281827000
0.24803342 0.77602428 0.44808304 4281827000
0.23962548 0.78048939 0.44803149 4281827000
0.23070243 0.77997339 0.44317132 4281827000
0.24872665 0.76359344 0.43303663 4281827000
0.10673957 0.63973433 0.38196582 4281827000
0.090029769 0.61016184 0.32395902 4281827000
0.089234635 0.60738534 0.31927255 4281827000
0.24137807 0.79089141 0.45501113 4281827000
0.23762053 0.7939266 0.45569071 4281827000
0.10933354 0.65330923 0.3930442 4281827000
0.099670649 0.6598621 0.39139655 4281827000
0.092296161 0.6742394 0.3735624 4281827000
0.092774987 0.65788054 0.36519548 4281827000
0.10435134 0.66611665 0.33196369 4294967091
0.10043438 0.67461717 0.32268548 4294967091
0.097701438 0.6778841 0.32208815 4294967091
0.097936474 0.67384726 0.3170996 4294967091
0.096271783 0.66893923 0.31138864 4294967091
0.096926644 0.6170789 0.34068459 4281827000
0.095600054 0.65905058 0.28742877 4294967091
0.23585159 0.83485842 0.43485451 4293138972
0.23213165 0.76934552 0.43425065 4281827000
0.12443171 0.69653326 0.40700895 4281827000
0.12654285 0.65347719 0.40358874 4281827000
0.12206532 0.65672523 0.40378404 4281827000
0.11638851 0.65209663 0.39748237 4281827000
0.10900342 0.65564483 0.39445964 4281827000
0.09909647 0.65373957 0.36597824 4281827000
0.10223261 0.63246572 0.36841133 4281827000
0.10342098 0.68152666 0.33826324 4294967091
0.096652992 0.65616357 0.31268594 4294967091
0.092935964 0.61157757 0.33028701 4281827000
0.099300899 0.65560144 0.28853118 4294967091
0.084005974 0.60989594 0.31532848 4281827000
0.095948845 0.65875113 0.26376098 4294967091
0.26600072 0.81551456 0.47267503 4293138972
0.25051075 0.7924543 0.45938447 4281827000
0.21931656 0.77409977 0.42725191 4281827000
0.20217493 0.75894487 0.41243017 4281827000
0.11902845 0.65523845 0.40176317 4281827000
0.10099901 0.67826068 0.38900727 4281827000
0.096762136 0.65661407 0.36487377 4281827000
0.10482987 0.66999441 0.33219171 4294967091
0.24058254 0.78528798 0.45129037 4281827000
0.23746467 0.82805586 0.43726245 4293138972
0.23675059 0.78675163 0.45054746 4281827000
0.19572614 0.75575858 0.40934154 4281827000
0.12699831 0.65833056 0.40635112 4281827000
0.13359198 0.63339853 0.38774225 4281827000
0.095304631 0.65466195 0.36765328 4281827000
0.093651876 0.66601717 0.36061078 4294967091
0.10474021 0.67921048 0.33527148 4294967091
0.10189194 0.67336458 0.33809111 4294967091
0.099626645 0.6780749 0.32669765 4294967091
0.095933251 0.65757978 0.28229469 4294967091
0.098017037 0.65442967 0.26540571 4294967091
0.097508371 0.65735471 0.26388693 4294967091
0.24846864 0.86988652 0.43867174 4293138972
0.20839112 0.77325112 0.41440034 4281827000
0.19603826 0.76429522 0.40891764 4281827000
0.13066383 0.62946641 0.37479165 4294967091
0.12779482 0.63050485 0.37267843 4281827000
0.097013965 0.65609592 0.27675048 4294967091
0.22953992 0.77338183 0.43721911 4281827000
0.23438765 0.76857328 0.43354717 4281827000
0.20206204 0.76423049 0.41239604 4281827000
0.10450447 0.68038923 0.39283901 4281827000
0.096363895 0.65436894 0.3725566 4281827000
0.10016007 0.65407395 0.28730226 4294967091
0.096673489 0.65581417 0.26673028 4294967091
0.24721341 0.8670761 0.43739596 4293138972
0.24716644 0.76226437 0.43094671 4281827000
0.22281592 0.76427877 0.42713407 4281827000
0.18688262 0.75678229 0.40093935 4281827000
0.20116164 0.77468121 0.34822312 4281827000
0.20049159 0.77274734 0.34783006 4281827000
0.097107589 0.67393792 0.38236541 4281827000
0.12865736 0.63045394 0.37404838 4281827000
0.08323203 0.62247145 0.32962528 4281827000
0.090477034 0.60839844 0.32241428 4281827000
0.099085011 0.65356821 0.27938595 4294967091
0.24984859 0.87481976 0.44333529 4293138972
0.24428628 0.78803629 0.45412791 4281827000
0.22410293 0.76997918 0.43058717 4281827000
0.13849646 0.67119533 0.4125466 4281827000
0.10604347 0.68711638 0.39835858 4281827000
0.12102009 0.65086281 0.39918378 4281827000
0.11332476 0.65609467 0.39898217 4281827000
0.24806699 0.8722719 0.43832102 4293138972
0.24472366 0.79306304 0.45827591 4281827000
0.23268321 0.82139003 0.44912514 4293138972
0.24778938 0.77386427 0.44524908 4281827000
0.20100461 0.76810366 0.3042222 4294967091
0.11963331 0.64492249 0.39250746 4281827000
0.11240935 0.64561778 0.38675037 4281827000
0.091752447 0.65277964 0.37299323 4281827000
0.12835769 0.63047028 0.36294696 4281827000
0.093498185 0.66674274 0.35869515 4294967091
0.1068312 0.66637713 0.32520413 4294967091
0.090271868 0.651375 0.3398253 4281827000
0.082419887 0.61223066 0.31682959 4281827000
0.24994951 0.8723858 0.44699571 4293138972
0.24615656 0.79191607 0.45757183 4281827000
0.23265083 0.82223523 0.44525716 4281827000
0.23660813 0.76699311 0.43248731 4281827000
0.20029172 0.77513313 0.35133079 4281827000
0.098205253 0.65403306 0.27604753 4294967091
0.10290799 0.65374905 0.26696953 4294967091
0.24846762 0.7945556 0.46048018 4281827000
0.19865799 0.77872097 0.35527056 4281827000
0.12994304 0.62965018 0.3704111 4294967091
0.097176582 0.66114187 0.35784152 4281827000
0.24421993 0.78568685 0.45330903 4281827000
0.21170676 0.78113782 0.41661781 4281827000
0.17610672 0.73540181 0.39970154 4281827000
0.10634386 0.68405575 0.39965156 4281827000
0.13164473 0.63177806 0.38291988 4281827000
0.093539856 0.66851312 0.3820149 4281827000
0.13144161 0.62996167 0.37787291 4294967091
0.10422716 0.63538229 0.37282327 4281827000
0.10244065 0.63398296 0.37148637 4281827000
0.099807531 0.62832069 0.3597362 4281827000
0.082559548 0.62375867 0.32857543 4281827000
0.081218414 0.62156922 0.32735753 4281827000
0.09638568 0.65778512 0.2859866 4294967091
0.2482949 0.80204707 0.46411628 4281827000
0.23074779 0.78384316 0.44491509 4281827000
0.19740875 0.78045601 0.35417694 4281827000
0.10822619 0.64122158 0.38353735 4281827000
0.13025625 0.62906414 0.37284893 4294967091
0.098333843 0.65157276 0.36762396 4281827000
0.095545135 0.66603798 0.35474962 4294967091
0.23835348 0.82734907 0.47123182 4293138972
0.23293211 0.82587671 0.44684657 4293138972
0.2409295 0.78228909 0.44979891 4281827000
0.23424058 0.7834242 0.44743407 4281827000
0.22884108 0.77167588 0.43518776 4281827000
0.21125948 0.77849495 0.41697946 4281827000
0.1305791 0.69393784 0.40772775 4281827000
0.11873866 0.68191409 0.40783301 4281827000
0.12622179 0.64496762 0.3968727 4281827000
0.19641276 0.768812 0.29164422 4294967091
0.09357848 0.66763735 0.3758328 4281827000
0.093291812 0.66516566 0.29550543 4294967091
0.24393578 0.79064262 0.45592991 4281827000
0.23058794 0.78189838 0.44434541 4281827000
0.1397541 0.65499532 0.40711716 4281827000
0.11823383 0.6421659 0.38689756 4281827000
0.13167079 0.62906057 0.37680107 4294967091
0.18465711 0.78163421 0.262858 4294967091
0.0948909 0.66041833 0.3760114 4281827000
0.098613709 0.65092361 0.36874178 4281827000
0.10517401 0.63428646 0.37138507 4281827000
0.10351 0.63254511 0.37024534 4281827000
0.25023204 0.76351118 0.43426862 4281827000
0.11316492 0.69088304 0.39909628 4281827000
0.13029648 0.62950999 0.3646625 4294967091
0.12885524 0.63042903 0.36438406 4281827000
0.093894519 0.63531697 0.35774586 4281827000
0.0868074 0.62830335 0.34028149 4281827000
0.095449269 0.65779877 0.26658946 4294967091
0.19858071 0.77686369 0.35505971 4281827000
0.12828469 0.67601871 0.41210297 4281827000
0.12051879 0.66692203 0.40621674 4281827000
0.12185967 0.64110839 0.38754648 4281827000
0.094260439 0.67599779 0.37351471 4281827000
0.098627858 0.65689164 0.29414445 4294967091
0.23186508 0.77721673 0.44216618 4281827000
0.1039627 0.68251103 0.39791131 4281827000
0.18718059 0.77556753 0.26911962 4294967091
0.10704856 0.63894832 0.38065675 4281827000
0.1042605 0.66211838 0.32716849 4294967091
0.088164315 0.6204738 0.33596703 4281827000
0.22202507 0.77102131 0.42848989 4281827000
0.12863755 0.64252216 0.39556932 4281827000
0.13018441 0.6294145 0.36690304 4294967091
0.099177577 0.65260422 0.27695817 4294967091
0.081357569 0.61203289 0.31327194 4281827000
0.19477445 0.76901037 0.29019934 4294967091
0.095739298 0.66503465 0.38680598 4281827000
0.12229251 0.642573 0.33919924 4281827000
0.10047027 0.62705815 0.35892618 4281827000
0.091906451 0.62937766 0.34832096 4281827000
0.086326182 0.6228025 0.33452138 4281827000
0.081371583 0.62067068 0.32609522 4281827000
0.099559121 0.65228271 0.2788572 4294967091
0.099219136 0.65196049 0.27450502 4294967091
0.23597506 0.82668906 0.47754192 4293138972
0.23304543 0.8277995 0.44799709 4293138972
0.1046122 0.6842885 0.3880235 4281827000
0.12276444 0.63879395 0.38623756 4281827000
0.18469542 0.78036308 0.26748687 4294967091
0.090755142 0.60885072 0.32450667 4281827000
0.099951208 0.65328574 0.28511608 4294967091
0.23543121 0.83980387 0.43609017 4293138972
0.22300823 0.80039018 0.4334904 4281827000
0.11345787 0.66992909 0.40509072 4281827000
0.12466002 0.63835424 0.3870666 4281827000
0.19207427 0.77148378 0.27345935 4294967091
0.09341269 0.65840948 0.38225389 4281827000
0.097475886 0.66578066 0.34499213 4294967091
0.091152422 0.60975927 0.32653821 4281827000
0.23826404 0.82640898 0.47820586 4293138972
0.23800521 0.82591546 0.4757531 4293138972
0.23448575 0.82224804 0.457459 4293138972
0.24204826 0.79449707 0.45862073 4281827000
0.22757296 0.77928722 0.44071096 4281827000
0.11232607 0.67984027 0.40487131 4281827000
0.10683355 0.66570306 0.4000178 4281827000
0.19114338 0.77756989 0.29966655 4294967091
0.19229421 0.77011883 0.27927896 4294967091
0.093902722 0.67289811 0.37646809 4281827000
0.23331724 0.83050853 0.45075428 4293138972
0.13302092 0.68626076 0.4110634 4281827000
0.11459958 0.6585505 0.40104121 4281827000
0.18895318 0.77202737 0.27174652 4294967091
0.10936483 0.63744026 0.37039104 4281827000
0.10216994 0.66677785 0.3381606 4294967091
0.091899253 0.6519379 0.34235364 4281827000
0.24450731 0.80398136 0.46291831 4281827000
0.22379595 0.77804089 0.43627438 4281827000
0.1124908 0.68516189 0.40399414 4281827000
0.097445764 0.65429586 0.26979503 4294967091
0.21901965 0.77096599 0.42666039 4281827000
0.19931029 0.77270019 0.35278776 4281827000
0.1229828 0.67930967 0.40962818 4281827000
0.12920731 0.65886652 0.40713504 4281827000
0.13184597 0.65261084 0.40456015 4281827000
0.099463657 0.66693753 0.39193743 4281827000
0.18401071 0.78043431 0.270978 4294967091
0.10682011 0.6375767 0.37916023 4281827000
0.10910807 0.63969946 0.37446767 4281827000
0.10962217 0.63950312 0.37173647 4281827000
0.093687423 0.67802459 0.34930751 4294967091
0.10310712 0.63162392 0.36847967 4281827000
0.21410514 0.78321236 0.41870651 4281827000
0.12462039 0.66167378 0.40727177 4281827000
0.12469912 0.656084 0.40460962 4281827000
0.11013143 0.64177042 0.38091856 4281827000
0.10193466 0.62972844 0.36448833 4281827000
0.099985264 0.66961747 0.34037447 4294967091
0.092784882 0.63339597 0.35735407 4281827000
0.24653713 0.86600715 0.44219145 4293138972
0.12076428 0.69037867 0.40489697 4281827000
0.12087507 0.65512353 0.40272236 4281827000
0.11348729 0.64066309 0.37381831 4281827000
0.095253401 0.65015322 0.37511352 4281827000
0.23590547 0.84573954 0.43819976 4293138972
0.21406801 0.77581644 0.42303017 4281827000
0.14313456 0.67445123 0.41397342 4281827000
0.13617103 0.66046131 0.40928024 4281827000
0.18765861 0.77469385 0.26311979 4294967091
0.094110705 0.67224282 0.34637243 4294967091
0.093944676 0.63220668 0.35767365 4281827000
0.099034548 0.6536864 0.28395668 4294967091
0.099596985 0.6528495 0.28108427 4294967091
0.19877145 0.77462268 0.35473713 4281827000
0.1310706 0.65803564 0.40684617 4281827000
0.12061338 0.6616385 0.4061639 4281827000
0.12957594 0.64112955 0.3944948 4281827000
0.19528545 0.7684167 0.29390973 4294967091
0.23627953 0.82728559 0.47348469 4293138972
0.13331506 0.6588133 0.40807331 4281827000
0.19063017 0.7794621 0.30131331 4294967091
0.093658336 0.66463274 0.3773891 4281827000
0.10155 0.6276536 0.36230457 4281827000
0.2342905 0.81883794 0.45688125 4293138972
0.10118987 0.66500223 0.39268646 4281827000
0.099702649 0.67065835 0.38454151 4281827000
0.2107133 0.78514892 0.41056782 4281827000
0.22549573 0.75156242 0.42057851 4281827000
0.12258057 0.64249325 0.39216852 4281827000
0.099633195 0.66548741 0.34157899 4294967091
0.12797052 0.64831537 0.33152947 4294967091
0.097900406 0.65377182 0.27181643 4294967091
0.23220724 0.83273858 0.44536182 4293138972
0.12343721 0.66864884 0.4093377 4281827000
0.11280212 0.64161211 0.38164076 4281827000
0.13219343 0.62760997 0.3719995 4294967091
0.084815532 0.61390758 0.32371393 4281827000
0.21970902 0.79261667 0.4278059 4281827000
0.22903773 0.76071513 0.42619503 4281827000
0.12450232 0.6500929 0.4002043 4281827000
0.18783869 0.77381426 0.26524237 4294967091
0.10153378 0.62683141 0.36020726 4281827000
0.23401059 0.84138894 0.44492441 4293138972
0.12650515 0.66153961 0.40768504 4281827000
0.13673943 0.65047932 0.40489104 4281827000
0.098422661 0.64537692 0.3709099 4281827000
0.092699237 0.63720864 0.3527157 4281827000
0.084436804 0.62600386 0.33766025 4281827000
0.080186814 0.61301911 0.31165141 4281827000
0.26365185 0.82038724 0.47461921 4293138972
0.23535091 0.84323549 0.4359217 4293138972
0.13596857 0.66591972 0.41132888 4281827000
0.13307685 0.6613726 0.40932664 4281827000
0.18359497 0.7846483 0.2622568 4294967091
0.093815349 0.61457473 0.33595917 4281827000
0.24730814 0.86887568 0.43601769 4293138972
0.24624339 0.86416835 0.43631968 4293138972
0.23588113 0.8462531 0.43462822 4293138972
0.23675515 0.83878684 0.43342003 4293138972
0.22593096 0.80466163 0.44141957 4281827000
0.093987562 0.6705426 0.34948179 4294967091
0.23825847 0.85249919 0.4398579 4293138972
0.12625337 0.63192248 0.36420515 4281827000
0.23878634 0.78886771 0.45340526 4281827000
0.09223599 0.67486906 0.35355052 4294967091
0.09759862 0.65362674 0.26723769 4294967091
0.081219859 0.61011332 0.30782601 4281827000
0.088767119 0.63836944 0.35574341 4281827000
0.095173135 0.61649942 0.33978206 4281827000
0.22727327 0.80301625 0.4429217 4281827000
0.10461967 0.66887218 0.39888695 4281827000
0.082489528 0.61551088 0.32326955 4281827000
0.080035523 0.61192805 0.30961013 4281827000
0.1214985 0.68455446 0.41095814 4281827000
0.1242815 0.63246423 0.36765355 4281827000
0.2369346 0.82674992 0.48080257 4293138972
0.24552643 0.80610174 0.46416992 4281827000
0.13165349 0.6431284 0.39762339 4281827000
0.20031783 0.75866526 0.41603363 4281827000
0.19280843 0.76410365 0.40985277 4281827000
0.19472851 0.76975441 0.40507159 4281827000
0.1144729 0.64547467 0.38791594 4281827000
0.12940878 0.6286546 0.36948699 4281827000
0.23391266 0.84101659 0.43406841 4293138972
0.11260688 0.66252631 0.40146634 4281827000
0.13049369 0.63016224 0.37982261 4294967091
0.1059259 0.63819718 0.38038537 4281827000
0.098291732 0.65516418 0.36348155 4281827000
0.090712093 0.65277952 0.36150539 4281827000
0.092543833 0.65886599 0.35507825 4281827000
0.094661087 0.66779447 0.34697762 4294967091
0.26138428 0.81836396 0.47355607 4293138972
0.24266735 0.81575084 0.46502277 4293138972
0.23110306 0.83232296 0.45055711 4293138972
0.23464516 0.82942224 0.4362506 4293138972
0.23399079 0.83136284 0.43543091 4293138972
0.23337536 0.83268923 0.43361712 4293138972
0.21075661 0.78414029 0.41901115 4281827000
0.097467139 0.65476769 0.3626588 4281827000
0.096778654 0.658746 0.35140687 4281827000
0.079906985 0.61083353 0.30735084 4281827000
0.24674599 0.87121546 0.43611422 4293138972
0.10521667 0.68604374 0.39669508 4281827000
0.094042413 0.67923212 0.38709423 4281827000
0.19275108 0.76905161 0.28628188 4294967091
0.18417771 0.77815706 0.26431429 4294967091
0.13117035 0.62747931 0.36975002 4294967091
0.2334186 0.83858609 0.43270037 4293138972
0.21954188 0.76056755 0.42511871 4281827000
0.19792876 0.7673977 0.29882145 4294967091
0.12268092 0.63881731 0.3830305 4281827000
0.18622369 0.77357531 0.27113587 4294967091
0.12765972 0.63057786 0.36067379 4281827000
0.096022643 0.65482974 0.36044031 4281827000
0.24023953 0.81609857 0.46411291 4293138972
0.21074469 0.78591895 0.41759899 4281827000
0.13023311 0.67528206 0.41368937 4281827000
0.13288592 0.65422302 0.40570444 4281827000
0.13105114 0.65040129 0.40287206 4281827000
0.12094685 0.64377111 0.39275926 4281827000
0.12279662 0.63648343 0.37751022 4281827000
0.094360523 0.65856367 0.34992465 4281827000
0.07852602 0.61480629 0.31425861 4281827000
0.25774089 0.81889158 0.47138399 4293138972
0.2612879 0.81428832 0.46975228 4293138972
0.23604545 0.82830215 0.43439421 4293138972
0.12834737 0.68552732 0.41476068 4281827000
0.23305202 0.82263523 0.44163626 4281827000
0.13474621 0.63691288 0.39122844 4281827000
0.12407769 0.63711053 0.38477123 4281827000
0.091558389 0.67431223 0.36844572 4294967091
0.090229198 0.6750111 0.36869547 4294967091
0.096543781 0.65719557 0.35858554 4281827000
0.25840718 0.81698811 0.47004065 4293138972
0.23360367 0.8353923 0.43315437 4293138972
0.093055286 0.6288501 0.35327941 4281827000
0.24319339 0.81864691 0.46664765 4293138972
0.24812558 0.81437606 0.4670454 4293138972
0.23569588 0.78437185 0.44994932 4281827000
0.13494006 0.65094888 0.4038569 4281827000
0.20682192 0.77599621 0.41714111 4281827000
0.20599872 0.77639604 0.41482818 4281827000
0.12835033 0.6503486 0.40205288 4281827000
0.13100074 0.64692563 0.40006208 4281827000
0.24018918 0.81414282 0.46378416 4293138972
0.24089679 0.85778749 0.43881658 4293138972
0.23761433 0.82761794 0.43492225 4293138972
0.23373181 0.82951736 0.43421456 4293138972
0.20220432 0.77741081 0.41034356 4281827000
0.092743628 0.65502518 0.35304552 4281827000
0.23769663 0.82434601 0.47407305 4293138972
0.21017767 0.77486777 0.41812265 4281827000
0.09429419 0.65366745 0.36339012 4281827000
0.07836584 0.6128509 0.30876029 4281827000
0.26568058 0.81564301 0.47583732 4293138972
0.26090407 0.81587487 0.47125843 4293138972
0.24207358 0.79483867 0.4601478 4281827000
0.12524424 0.66608047 0.4099732 4281827000
0.12262817 0.64587927 0.3951568 4281827000
0.096553624 0.66351211 0.34806579 4294967091
0.097165108 0.68121731 0.32750288 4294967091
0.094781719 0.67575657 0.31750295 4294967091
0.097383529 0.66345125 0.34487271 4294967091
0.090164214 0.62053633 0.33955199 4281827000
0.13704029 0.66750157 0.41232696 4281827000
0.1335341 0.66771823 0.41206104 4281827000
0.092958324 0.65918612 0.26920733 4294967091
0.2398566 0.81807107 0.46538007 4293138972
0.22610046 0.81014961 0.44501507 4281827000
0.22512096 0.81147212 0.44284359 4281827000
0.20353106 0.7827884 0.41171435 4281827000
0.12192349 0.67723775 0.41113773 4281827000
0.089907125 0.6662845 0.29451051 4294967091
0.078713477 0.61741513 0.32013035 4281827000
0.25926542 0.81885368 0.47233146 4293138972
0.08635816 0.61676145 0.33080775 4281827000
0.091392457 0.6655761 0.29883632 4294967091
0.08522398 0.61537802 0.32773876 4281827000
0.20695324 0.77964514 0.41667441 4281827000
0.090776719 0.66673678 0.29710692 4294967091
0.20418361 0.76213932 0.41626167 4281827000
0.12282485 0.63307929 0.3715575 4281827000
0.0886712 0.67493457 0.36292949 4294967091
0.080458015 0.62678796 0.33356407 4281827000
0.2341999 0.84738857 0.43938118 4293138972
0.23384197 0.79244733 0.45355448 4281827000
0.2273981 0.76267713 0.42757034 4281827000
0.20952648 0.76336306 0.41967803 4281827000
0.20726456 0.7646299 0.4180941 4281827000
0.19427508 0.76538253 0.4123477 4281827000
0.11200159 0.67315799 0.40566644 4281827000
0.12249195 0.6541146 0.4028081 4281827000
0.12727365 0.62976676 0.36797947 4281827000
0.091948971 0.67174017 0.31143951 4294967091
0.2456954 0.87360322 0.4380601 4293138972
0.23089734 0.76032734 0.42684028 4281827000
0.12912685 0.66323549 0.40919715 4281827000
0.12387865 0.63380951 0.37754899 4281827000
0.090466939 0.67041624 0.30919164 4294967091
0.23517664 0.84788316 0.43697673 4293138972
0.2073825 0.75663018 0.41889292 4281827000
0.20507552 0.76066744 0.419328 4281827000
0.19059545 0.7681877 0.40732288 4281827000
0.087725721 0.67603117 0.36415282 4294967091
0.23650685 0.7617892 0.4284009 4281827000
0.20781232 0.75881755 0.4196505 4281827000
0.20290285 0.76462263 0.41602379 4281827000
0.092409432 0.63451344 0.36187968 4281827000
0.26304173 0.8197366 0.47852015 4293138972
0.20001569 0.76677597 0.41617152 4281827000
0.19648111 0.76082647 0.41580471 4281827000
0.23595859 0.83705139 0.46593753 4293138972
0.23330224 0.84391177 0.4495481 4293138972
0.23299626 0.84310228 0.43387803 4293138972
0.12296384 0.63309789 0.36971718 4281827000
0.090854585 0.67593986 0.35405031 4294967091
0.091043629 0.66449636 0.2808266 4294967091
0.20564127 0.77318639 0.41676944 4281827000
0.20184986 0.77268147 0.41456786 4281827000
0.12068479 0.63532335 0.36980072 4281827000
0.095795304 0.67848575 0.31848201 4294967091
0.22695011 0.78681797 0.44577876 4281827000
0.19865501 0.77110189 0.41433743 4281827000
0.19894175 0.77553236 0.41005552 4281827000
0.2012129 0.78175855 0.40838814 4281827000
0.19649509 0.77812636 0.40724781 4281827000
0.26033923 0.81974036 0.47502762 4293138972
0.21628317 0.75892943 0.42330399 4281827000
0.19677536 0.77607542 0.40766042 4281827000
0.13133906 0.67387944 0.41378912 4281827000
0.07800097 0.61598802 0.31703845 4281827000
0.23422164 0.83050394 0.46590033 4293138972
0.21811412 0.79072285 0.43302575 4281827000
0.21836229 0.76167846 0.42523751 4281827000
0.13472207 0.67526507 0.41392049 4281827000
0.077527285 0.61821848 0.32038853 4281827000
0.2232971 0.79768866 0.44207764 4281827000
0.13077466 0.67143053 0.41339865 4281827000
0.13318911 0.64718014 0.40090296 4281827000
0.085653625 0.63598871 0.35063398 4281827000
0.20352116 0.78607249 0.41159663 4281827000
0.12284902 0.63718599 0.38198417 4281827000
0.085820809 0.61984265 0.33386257 4281827000
0.090778925 0.66536885 0.28925374 4294967091
0.13251066 0.67118424 0.41346964 4281827000
0.22207777 0.79841101 0.43893582 4281827000
0.20421474 0.77845734 0.41433814 4281827000
0.10889298 0.68983132 0.40516618 4281827000
0.12192764 0.6378535 0.37662986 4281827000
0.12388905 0.63243735 0.36427334 4281827000
0.25721082 0.82036966 0.4724412 4293138972
0.23349138 0.83167893 0.43180466 4293138972
0.12405012 0.63553953 0.38201082 4281827000
0.18205629 0.78204447 0.26458621 4294967091
0.091653846 0.6723758 0.31334201 4294967091
0.084942207 0.61047399 0.32049254 4281827000
0.26023361 0.81833607 0.4771595 4293138972
0.25946504 0.8204844 0.47398368 4293138972
0.25681135 0.82225883 0.47332922 4293138972
0.1045588 0.68755651 0.40185824 4281827000
0.13399442 0.64360732 0.39861327 4281827000
0.12148487 0.63473469 0.37306294 4281827000
0.12042692 0.63653052 0.37202215 4281827000
0.12121438 0.63505954 0.36424479 4281827000
0.20353439 0.78017843 0.41371185 4281827000
0.19598173 0.77881682 0.33596414 4294967091
0.12196194 0.63379151 0.36827943 4281827000
0.12098216 0.63517034 0.36746228 4281827000
0.12240046 0.6337564 0.36440343 4281827000
0.2312436 0.82818764 0.47508836 4293138972
0.2314104 0.83571398 0.43334234 4293138972
0.12356797 0.63234317 0.36663198 4281827000
0.22940931 0.82654119 0.45360562 4293138972
0.22775236 0.81351894 0.45040384 4281827000
0.23248173 0.82543385 0.44049791 4293138972
0.20427661 0.78319764 0.41371593 4281827000
0.23282762 0.76091987 0.42761368 4281827000
0.23285764 0.82539213 0.47248524 4293138972
0.1230286 0.63777333 0.37969428 4281827000
0.23839532 0.81093395 0.46314567 4281827000
0.23698011 0.81242543 0.46235153 4293138972
0.23181507 0.76387006 0.42907789 4281827000
0.12130665 0.63472408 0.37125158 4281827000
0.13521962 0.66201133 0.41005272 4281827000
0.1342684 0.64571351 0.40023363 4281827000
0.18923295 0.77380097 0.26746026 4294967091
0.090554193 0.64212269 0.36656186 4281827000
0.23245095 0.83408856 0.43157783 4293138972
0.12308308 0.63312596 0.36692265 4281827000
0.24341162 0.79795021 0.46319139 4281827000
0.24025302 0.79634941 0.46092549 4281827000
0.22257601 0.78733027 0.44146162 4281827000
0.12906255 0.66631353 0.41089582 4281827000
0.11873046 0.66733921 0.40861279 4281827000
0.23278868 0.82685977 0.47755885 4293138972
0.12052114 0.63952613 0.38097912 4281827000
0.085396528 0.63467896 0.34446716 4281827000
0.094353907 0.68185669 0.32403925 4294967091
0.077305041 0.62305737 0.3263993 4281827000
0.2314133 0.82872558 0.47849032 4293138972
0.23110309 0.82808322 0.47631919 4293138972
0.12242468 0.63395417 0.36601532 4281827000
0.18164961 0.78221357 0.26973018 4294967091
0.12583506 0.65117353 0.40071908 4281827000
0.23233731 0.82663697 0.47338274 4293138972
0.23431072 0.82472742 0.47041827 4293138972
0.094380587 0.68050748 0.39195296 4281827000
0.076999567 0.61650783 0.31457731 4281827000
0.2531251 0.81892335 0.46952158 4293138972
0.12070192 0.63804376 0.37548155 4281827000
0.093932688 0.67921638 0.32105425 4294967091
0.078891501 0.62569082 0.32972112 4281827000
0.23397352 0.82413596 0.47331384 4293138972
0.25442901 0.81639302 0.46946406 4293138972
0.21484886 0.7901364 0.42735589 4281827000
0.094889469 0.67815721 0.32206789 4294967091
0.24453913 0.81724793 0.46778196 4293138972
0.20664161 0.78587776 0.41543391 4281827000
0.1266026 0.649131 0.40040746 4281827000
0.089691617 0.67725056 0.37356529 4281827000
0.088850759 0.62288707 0.34145078 4281827000
0.12841676 0.6807757 0.4134284 4281827000
0.095213197 0.68278795 0.33064669 4294967091
0.094396099 0.66655278 0.3121666 4294967091
0.1852484 0.77657622 0.26160812 4294967091
0.092018493 0.67678553 0.31708458 4294967091
0.093341798 0.67761445 0.31847203 4294967091
0.089419439 0.66711295 0.2965844 4294967091
0.22987017 0.83449334 0.45059848 4293138972
0.11821239 0.64752018 0.39414942 4281827000
0.090394624 0.66499275 0.28511366 4294967091
0.089884795 0.66498208 0.28065646 4294967091
0.23022577 0.83482635 0.44019586 4293138972
0.23374292 0.82210118 0.46427923 4293138972
0.10943245 0.64731544 0.38808724 4281827000
0.18863466 0.78239685 0.30944505 4294967091
0.091001272 0.62557012 0.34723195 4281827000
0.089931905 0.66796416 0.30833313 4294967091
0.19475915 0.78264302 0.33769274 4294967091
0.089605853 0.67895168 0.38291809 4281827000
0.076275885 0.62300229 0.32542166 4281827000
0.076364972 0.61885709 0.31966341 4281827000
0.094985805 0.67949319 0.31750438 4294967091
0.25738779 0.82096368 0.47410363 4293138972
0.11884827 0.63830012 0.37535989 4281827000
0.090165675 0.67413265 0.35069397 4294967091
0.23788095 0.77674639 0.44623262 4281827000
0.11743063 0.67758554 0.4090066 4281827000
0.1199438 0.63883257 0.3776198 4281827000
0.076333188 0.61743134 0.31635228 4281827000
0.077316642 0.61487663 0.31227386 4281827000
0.077157646 0.62514561 0.32684767 4281827000
0.077257685 0.61739874 0.31875205 4281827000
0.1951673 0.78085142 0.33158726 4294967091
0.11980176 0.64051133 0.38455141 4281827000
0.1893414 0.78316212 0.31398132 4294967091
0.1209633 0.63598579 0.3660607 4281827000
0.088569388 0.678352 0.36968547 4294967091
0.087996274 0.6316402 0.35109019 4281827000
0.098115034 0.66853637 0.3178249 4294967091
0.090303995 0.6760236 0.31489077 4294967091
0.25392163 0.81981057 0.4705866 4293138972
0.11242498 0.69241261 0.40519613 4281827000
0.25791487 0.82033694 0.47580639 4293138972
0.25553137 0.82286602 0.47385812 4293138972
0.11790955 0.64044136 0.38025171 4281827000
0.23392993 0.81956655 0.46322998 4293138972
0.12196093 0.63703489 0.37469739 4281827000
0.11855615 0.63761276 0.3725256 4281827000
0.18076093 0.78652674 0.26302886 4294967091
0.090339236 0.66789389 0.31043726 4294967091
0.076152585 0.62045979 0.32129148 4281827000
0.12675352 0.6476084 0.3988207 4281827000
0.18561405 0.78467876 0.29412624 4294967091
0.095631689 0.68061006 0.32452622 4294967091
0.23034948 0.79729754 0.45563984 4281827000
0.23036958 0.83987266 0.4419072 4293138972
0.22968069 0.83659303 0.44031101 4293138972
0.12037124 0.69089437 0.41087466 4281827000
0.11940099 0.637214 0.36947238 4281827000
0.11951382 0.63702112 0.36563313 4281827000
0.12272816 0.63515419 0.36127409 4281827000
0.088360325 0.67636281 0.36900029 4294967091
0.092223577 0.64000243 0.36882675 4281827000
0.095655821 0.68280041 0.33211768 4294967091
0.095397212 0.68459135 0.33117765 4294967091
0.079449661 0.63049221 0.3367618 4281827000
0.077106997 0.6174069 0.31723854 4281827000
0.11936148 0.63693023 0.36756992 4281827000
0.091216303 0.67726576 0.31561577 4294967091
0.13138993 0.65991926 0.40860096 4281827000
0.18347339 0.77719283 0.26978767 4294967091
0.083400294 0.61202478 0.32081419 4281827000
0.2312697 0.8259629 0.47527984 4293138972
0.19068035 0.78367698 0.32014391 4294967091
0.12213853 0.6344763 0.36948103 4281827000
0.18690427 0.78368425 0.30309471 4294967091
0.08733961 0.64436913 0.36223531 4281827000
0.085591786 0.6427964 0.35562029 4281827000
0.087495126 0.62845749 0.3458657 4281827000
0.077190191 0.628842 0.33228758 4281827000
0.077084512 0.62027776 0.32261479 4281827000
0.23050272 0.8378433 0.43738949 4293138972
0.23071849 0.83477277 0.4365384 4293138972
0.095058128 0.68309426 0.32883269 4294967091
0.11797179 0.63966477 0.37765682 4281827000
0.18845245 0.78399432 0.31154081 4294967091
0.18769574 0.78380936 0.30829895 4294967091
0.18711807 0.78439158 0.30570152 4294967091
0.18613672 0.78414154 0.30042827 4294967091
0.12037002 0.63644201 0.36368474 4281827000
0.088889919 0.63195354 0.35266742 4281827000
0.081187181 0.63423949 0.34283665 4281827000
0.078341745 0.62395424 0.32815495 4281827000
0.087984271 0.66853553 0.30571747 4294967091
0.088264383 0.66802919 0.3004654 4294967091
0.23067196 0.83305508 0.43645597 4293138972
0.12332591 0.63718015 0.37550873 4281827000
0.082715981 0.63800144 0.3481504 4281827000
0.077465765 0.62876707 0.3297374 4281827000
0.23850399 0.82026339 0.46812567 4293138972
0.089443728 0.67480505 0.35235274 4294967091
0.083906092 0.63865161 0.34907016 4281827000
0.090792052 0.6245212 0.34592077 4281827000
0.09494631 0.68415064 0.32627434 4294967091
0.081517078 0.63589722 0.3435567 4281827000
0.094929844 0.68403196 0.32427698 4294967091
0.09750329 0.66622585 0.31516051 4294967091
0.075968757 0.62567621 0.32774886 4281827000
0.091597758 0.67906642 0.3888433 4281827000
0.093289316 0.68225747 0.32307115 4294967091
0.079927757 0.63182265 0.33954114 4281827000
0.092416167 0.67916805 0.31850091 4294967091
0.2306637 0.83630133 0.4352802 4293138972
0.11460659 0.64939588 0.39382949 4281827000
0.088997826 0.67767411 0.35419044 4294967091
0.076600276 0.62488377 0.32508138 4281827000
0.21943849 0.74952012 0.41881338 4281827000
0.11898123 0.69130075 0.40960783 4281827000
0.11812618 0.65239149 0.39945251 4281827000
0.19375247 0.78111476 0.33560237 4294967091
0.11827569 0.64167118 0.38420916 4281827000
0.12549467 0.63386536 0.37934694 4281827000
0.084060252 0.64125347 0.35371104 4281827000
0.094504125 0.68494749 0.32806018 4294967091
0.12937042 0.64915174 0.40091082 4281827000
0.12250289 0.63407415 0.37105024 4281827000
0.18387894 0.77858007 0.26308426 4294967091
0.093882956 0.68120003 0.3190937 4294967091
0.091820203 0.67861915 0.31627798 4294967091
0.22163396 0.74737477 0.41808638 4281827000
0.12376883 0.64839321 0.39812341 4281827000
0.19371744 0.78096688 0.33139023 4294967091
0.091801666 0.68061846 0.31812459 4294967091
0.2308457 0.827097 0.4716298 4293138972
0.093966663 0.6839866 0.39310834 4281827000
0.085497707 0.64154023 0.35783145 4281827000
0.085391775 0.64053446 0.35612714 4281827000
0.087874383 0.6328575 0.35191399 4281827000
0.088502742 0.62538737 0.34428242 4281827000
0.079264522 0.63187414 0.33790243 4281827000
0.075592421 0.62155336 0.32289138 4281827000
0.11347304 0.6898489 0.40700185 4281827000
0.095063463 0.64482641 0.37994862 4281827000
0.087357141 0.67651188 0.37401363 4281827000
0.23210205 0.79823166 0.45847121 4281827000
0.19089402 0.78491229 0.32271293 4294967091
0.18549922 0.78380662 0.29786614 4294967091
0.087474927 0.67777163 0.37189537 4294967091
0.081729054 0.63753986 0.34692344 4281827000
0.081426583 0.63653189 0.34572929 4281827000
0.077573262 0.62820238 0.33386716 4281827000
0.1033415 0.68874681 0.40004793 4281827000
0.11914583 0.63961238 0.37901437 4281827000
0.18661611 0.78595054 0.30422717 4294967091
0.18538131 0.78617227 0.29864356 4294967091
0.18484275 0.78669298 0.29549408 4294967091
0.091936775 0.62455916 0.34645206 4281827000
0.23746377 0.82136077 0.4698635 4293138972
0.11635061 0.68935937 0.40906155 4281827000
0.11138218 0.69384646 0.40598914 4281827000
0.13034983 0.64642787 0.39871147 4281827000
0.10875945 0.69197416 0.4055008 4281827000
0.088926584 0.67490727 0.37526858 4281827000
0.082618453 0.63901168 0.34945369 4281827000
0.089049518 0.6661858 0.28529459 4294967091
0.24617875 0.81056327 0.46733767 4293138972
0.10470859 0.69010603 0.40149519 4281827000
0.12013873 0.64181632 0.38696355 4281827000
0.083438657 0.63911003 0.35096857 4281827000
0.094724111 0.66835952 0.31551909 4294967091
0.090062268 0.66453439 0.2862896 4294967091
0.11700488 0.69269609 0.40738294 4281827000
0.10706315 0.69332016 0.40137163 4281827000
0.19455472 0.77604038 0.32508618 4294967091
0.11654479 0.64053261 0.3766 4281827000
0.090468079 0.67975432 0.38760653 4281827000
0.082112417 0.63920504 0.34647202 4281827000
0.080223031 0.63671225 0.34338683 4281827000
0.077171929 0.61446887 0.30893981 4281827000
0.11741313 0.63989258 0.37493855 4281827000
0.11860833 0.63812524 0.3706829 4281827000
0.076185182 0.61585855 0.30964109 4281827000
0.21018265 0.78416336 0.42332712 4281827000
0.1282537 0.64541203 0.39734441 4281827000
0.1174601 0.63838917 0.37139183 4281827000
0.11819439 0.63810807 0.36876068 4281827000
0.1181594 0.63866329 0.36644432 4281827000
0.07622312 0.6272499 0.32819378 4281827000
0.076273039 0.61652166 0.31177756 4281827000
0.077293001 0.61391342 0.30694577 4281827000
0.088840775 0.6665017 0.27950102 4294967091
0.19327213 0.77993214 0.3279117 4294967091
0.11727324 0.63908511 0.37379846 4281827000
0.089050591 0.67002243 0.37546507 4281827000
0.0774213 0.62981731 0.33389768 4281827000
0.079123475 0.63136417 0.33421215 4281827000
0.077338547 0.62704462 0.33163366 4281827000
0.099579878 0.68569475 0.3997381 4281827000
0.084821276 0.64348257 0.35821864 4281827000
0.084496528 0.64321089 0.3568103 4281827000
