# .PCD v0.7 - Point Cloud Data file format
VERSION 0.7
FIELDS x y z rgba
SIZE 4 4 4 4
TYPE F F F U
COUNT 1 1 1 1
WIDTH 1094
HEIGHT 1
VIEWPOINT 0 0 0 1 0 0 0
POINTS 1094
DATA ascii
0.2290234 0.71896946 0.38179272 4281827000
0.22757994 0.71696049 0.38152349 4281827000
0.2257545 0.71358991 0.3791599 4281827000
0.2253204 0.7117281 0.37780043 4281827000
0.22325626 0.7088688 0.37658328 4281827000
0.22146313 0.70676613 0.37646279 4281827000
0.22015728 0.70302737 0.3747634 4281827000
0.21848916 0.70119965 0.37465882 4281827000
0.21687631 0.69770759 0.37263522 4281827000
0.21574785 0.6956355 0.37113199 4281827000
0.2121879 0.69017851 0.36909327 4281827000
0.20304462 0.68128681 0.36591336 4281827000
0.20367129 0.67975855 0.36334679 4281827000
0.2030071 0.67724234 0.36293086 4281827000
0.18268891 0.6553058 0.34935346 4294967091
0.18109491 0.65272039 0.34856325 4294967091
0.17939979 0.65040565 0.34704709 4294967091
0.17863107 0.6478321 0.34568277 4294967091
0.17700237 0.64526296 0.34523004 4294967091
0.17527117 0.64267349 0.343936 4294967091
0.17428418 0.63993394 0.34275249 4294967091
0.30108926 0.81816 0.43105423 4293138972
0.29958767 0.81485105 0.43077892 4293138972
0.25824496 0.77721626 0.40501562 4281827000
0.25810283 0.7732389 0.40333962 4281827000
0.25870514 0.76838458 0.40247563 4281827000
0.1734613 0.63939625 0.34010464 4294967091
0.3053652 0.8270514 0.43201223 4293138972
0.30591062 0.82531196 0.43068436 4293138972
0.30400863 0.82104319 0.42876005 4293138972
0.3021661 0.81860125 0.42793268 4293138972
0.25325412 0.762721 0.39696798 4281827000
0.25258809 0.76002479 0.39392155 4281827000
0.2539345 0.75349289 0.39218649 4281827000
0.22248398 0.70544887 0.37088248 4281827000
0.22444309 0.70814615 0.36921602 4281827000
0.25500727 0.77320737 0.38881922 4281827000
0.24409053 0.73382014 0.37517747 4281827000
0.23867896 0.72614723 0.3729277 4281827000
0.23126094 0.71439213 0.36156502 4281827000
0.25578985 0.75029528 0.36622393 4294967091
0.25167039 0.74467891 0.36214039 4294967091
0.25216109 0.74533957 0.35563332 4294967091
0.24876721 0.73945993 0.34320661 4294967091
0.24799573 0.73689902 0.34294781 4294967091
0.22225104 0.78936124 0.32510352 4294967091
0.24517545 0.73432702 0.32835683 4294967091
0.24492143 0.73451233 0.3239302 4294967091
0.2404588 0.73234874 0.30728558 4294967091
0.22526233 0.80774772 0.28155097 4294967091
0.29741481 0.81327242 0.43860209 4293138972
0.28970581 0.80326164 0.4350467 4293138972
0.25658947 0.76706386 0.4123227 4281827000
0.25517371 0.76415038 0.4113549 4281827000
0.25139943 0.75587922 0.40740386 4281827000
0.24262644 0.74554545 0.40164739 4281827000
0.20414017 0.68461913 0.37214479 4281827000
0.20246969 0.68177342 0.37137195 4281827000
0.19977745 0.67935377 0.37107673 4281827000
0.19829082 0.67682236 0.36866105 4281827000
0.18519165 0.65785772 0.35914189 4294967091
0.17123085 0.63517869 0.34867451 4294967091
0.29717883 0.82763082 0.44044742 4293138972
0.25824568 0.76725733 0.40985304 4281827000
0.25559238 0.76457357 0.40907553 4281827000
0.25125229 0.75338626 0.40377331 4281827000
0.20434473 0.68390757 0.37000477 4281827000
0.20312686 0.6818307 0.36864206 4281827000
0.20124044 0.67925918 0.36875638 4281827000
0.19978774 0.67677313 0.36660635 4281827000
0.2583974 0.77661067 0.40858474 4281827000
0.22235699 0.70799255 0.37861168 4281827000
0.22051178 0.70459682 0.37719592 4281827000
0.21681716 0.69971347 0.37555069 4281827000
0.21311088 0.69274056 0.37288308 4281827000
0.20693272 0.68550038 0.36914936 4281827000
0.20516226 0.68306392 0.36693072 4281827000
0.30026203 0.81619936 0.43196824 4293138972
0.22137357 0.70550501 0.37473661 4281827000
0.21409702 0.69323063 0.37032616 4281827000
0.20694561 0.68513572 0.36641207 4281827000
0.20615581 0.68333524 0.36450762 4281827000
0.1872292 0.66720372 0.35581708 4294967091
0.20932974 0.68532395 0.362856 4281827000
0.17767639 0.64748091 0.34037542 4294967091
0.1765212 0.64438719 0.3401233 4294967091
0.21220115 0.6884768 0.36259851 4281827000
0.20903882 0.683649 0.35989252 4281827000
0.25750363 0.77661663 0.39701211 4281827000
0.21313287 0.68643582 0.35885304 4281827000
0.21231818 0.68239713 0.35741699 4281827000
0.17356294 0.63680953 0.33012161 4294967091
0.22316164 0.70183182 0.35919094 4281827000
0.24844681 0.74084222 0.37189409 4281827000
0.2526027 0.74512243 0.37144473 4281827000
0.25331566 0.76600587 0.37255052 4281827000
0.25613463 0.75346464 0.35812277 4294967091
0.2458113 0.73576826 0.33121553 4294967091
0.24610709 0.73556566 0.32190788 4294967091
0.24384435 0.73416615 0.31564039 4294967091
0.24193284 0.7342785 0.31195721 4294967091
0.23261574 0.81042588 0.26297709 4294967091
0.2875151 0.82699955 0.45122871 4293138972
0.29223052 0.81823522 0.45022672 4293138972
0.29253024 0.81521714 0.44918242 4293138972
0.29357353 0.81204712 0.44925287 4293138972
0.29381499 0.80949724 0.44643462 4293138972
0.29314941 0.80792427 0.4476271 4293138972
0.28628239 0.79966384 0.44304422 4293138972
0.28348306 0.79786664 0.4419407 4293138972
0.28060964 0.79603142 0.44070995 4293138972
0.27742761 0.7941134 0.43993717 4293138972
0.27452591 0.79390371 0.43780047 4293138972
0.29127911 0.82306015 0.44732481 4293138972
0.29348156 0.81941831 0.44633952 4293138972
0.29316261 0.81591058 0.4464297 4293138972
0.29406321 0.81105274 0.4448553 4293138972
0.29422352 0.80871558 0.44425806 4293138972
0.29322219 0.80737883 0.44247416 4293138972
0.29135966 0.80525154 0.44216171 4293138972
0.2897898 0.80296648 0.44129428 4293138972
0.28471676 0.79848534 0.43738559 4293138972
0.28085294 0.79561663 0.43791181 4293138972
0.26126719 0.78320742 0.42603663 4281827000
0.26216722 0.7813918 0.42514667 4281827000
0.26219895 0.77963495 0.42427939 4281827000
0.26079702 0.77694041 0.42387456 4281827000
0.25925058 0.77436155 0.42334336 4281827000
0.25825125 0.77166712 0.42068246 4281827000
0.25699112 0.77015328 0.4210965 4281827000
0.25193098 0.76429242 0.41736707 4281827000
0.24996804 0.76242208 0.41664755 4281827000
0.24956338 0.76048261 0.41536656 4281827000
0.24582385 0.75712013 0.4142597 4281827000
0.2430681 0.75256026 0.41187784 4281827000
0.23944785 0.74876916 0.40924108 4281827000
0.23705733 0.74629462 0.40769294 4281827000
0.23456512 0.74424708 0.40720636 4281827000
0.23310505 0.74121147 0.40605217 4281827000
0.23299229 0.73940712 0.40510273 4281827000
0.2296285 0.73349464 0.40208629 4281827000
0.22689669 0.73129219 0.40099546 4281827000
0.22623999 0.72890407 0.40035862 4281827000
0.22351827 0.72682852 0.39873731 4281827000
0.22100401 0.72423303 0.39716184 4281827000
0.21881689 0.720043 0.39529684 4281827000
0.21718831 0.71737707 0.39412573 4281827000
0.21649569 0.71489203 0.39339387 4281827000
0.21509814 0.71131998 0.39180201 4281827000
0.21413237 0.70829672 0.39056745 4281827000
0.21283077 0.70593452 0.38964137 4281827000
0.21205628 0.70328128 0.38904777 4281827000
0.20926484 0.70001209 0.38704872 4281827000
0.20845471 0.69819224 0.3867996 4281827000
0.20801823 0.6950745 0.38602048 4281827000
0.20542294 0.6920858 0.38450527 4281827000
0.20364144 0.68959492 0.38344482 4281827000
0.20095162 0.6866591 0.38270035 4281827000
0.19931953 0.68267733 0.38016438 4281827000
0.19703501 0.68012214 0.37909529 4281827000
0.19470447 0.67732042 0.37813655 4281827000
0.19154161 0.67346513 0.37670305 4281827000
0.19098791 0.67215395 0.37468001 4281827000
0.1892672 0.66966373 0.37302503 4281827000
0.18670401 0.66627336 0.37275264 4281827000
0.18605725 0.66259819 0.37017882 4281827000
0.18417481 0.65964741 0.37006557 4281827000
0.18402833 0.65725058 0.36928126 4281827000
0.18374871 0.65412372 0.36823997 4281827000
0.18184279 0.65304208 0.36853129 4281827000
0.18005508 0.64559776 0.36537132 4294967091
0.17776881 0.64317966 0.36396027 4294967091
0.17652045 0.64093584 0.36318722 4294967091
0.17501916 0.63750374 0.3616451 4294967091
0.17354517 0.63556451 0.36280933 4294967091
0.28952527 0.82643914 0.4468089 4293138972
0.29627341 0.81927502 0.44441518 4293138972
0.29545012 0.81668669 0.44445679 4293138972
0.29453504 0.81284213 0.44338009 4293138972
0.29411599 0.81035239 0.44292429 4293138972
0.29431838 0.80877304 0.44144127 4293138972
0.29218432 0.80615109 0.44068962 4293138972
0.29015169 0.80355126 0.43829495 4293138972
0.28959456 0.80211955 0.43670398 4293138972
0.26849976 0.81350589 0.44121721 4293138972
0.26045007 0.78532857 0.42406756 4281827000
0.26186335 0.78161293 0.42285812 4281827000
0.26176298 0.7793231 0.42211139 4281827000
0.26065394 0.77582669 0.41935396 4281827000
0.25916025 0.77244008 0.41864416 4281827000
0.25857738 0.77051991 0.41862833 4281827000
0.25217408 0.76351911 0.4155533 4281827000
0.25108078 0.76169395 0.41448596 4281827000
0.25090578 0.75892603 0.41371047 4281827000
0.24828078 0.75649166 0.41159952 4281827000
0.24684545 0.75438982 0.41007736 4281827000
0.24455243 0.7530725 0.4101994 4281827000
0.24141714 0.74940127 0.40789172 4281827000
0.2391708 0.74735993 0.40683264 4281827000
0.23726146 0.74490166 0.40519336 4281827000
0.23683225 0.74336231 0.40507963 4281827000
0.23438974 0.73999363 0.40346298 4281827000
0.23446521 0.73857039 0.40226877 4281827000
0.23314905 0.73600179 0.4011375 4281827000
0.23077485 0.73242027 0.39963293 4281827000
0.22757813 0.72856688 0.398166 4281827000
0.22682591 0.72634381 0.3969835 4281827000
0.22344489 0.72476971 0.39543232 4281827000
0.22199237 0.72101814 0.39398158 4281827000
0.21935993 0.71892625 0.39331779 4281827000
0.21872437 0.71585923 0.39169997 4281827000
0.21717241 0.71367842 0.39118084 4281827000
0.21537711 0.70981693 0.38934675 4281827000
0.21557303 0.70772839 0.38837948 4281827000
0.21460614 0.70532829 0.3880038 4281827000
0.21331297 0.70284593 0.3865481 4281827000
0.21191429 0.70075798 0.38517228 4281827000
0.20873763 0.69669831 0.38487017 4281827000
0.20846501 0.69470692 0.38384712 4281827000
0.20658807 0.69251132 0.38287523 4281827000
0.20508751 0.68952727 0.38127095 4281827000
0.20208091 0.68617225 0.37965676 4281827000
0.20170967 0.68420196 0.37881505 4281827000
0.20005186 0.68171525 0.37778342 4281827000
0.19745043 0.67898327 0.37718892 4281827000
0.19906475 0.67940515 0.37508038 4281827000
0.1960766 0.6763792 0.3758595 4281827000
0.19143899 0.67180884 0.37200302 4281827000
0.18684755 0.66523206 0.37041989 4281827000
0.18595195 0.66042805 0.36866167 4281827000
0.18423842 0.65631938 0.36725914 4281827000
0.18408434 0.6541087 0.36547366 4281827000
0.18337791 0.65130275 0.36454153 4294967091
0.18284081 0.64857215 0.36334628 4294967091
0.18010677 0.64561391 0.36301655 4294967091
0.17869195 0.64315146 0.36176646 4294967091
0.17633469 0.64010006 0.36081871 4294967091
0.17533951 0.63757217 0.35907122 4294967091
0.17327671 0.63553673 0.35832274 4294967091
0.25973332 0.77066833 0.41618943 4281827000
0.25729188 0.76815397 0.41481838 4281827000
0.25019693 0.75840253 0.41084704 4281827000
0.25119543 0.75694048 0.41015786 4281827000
0.24122457 0.74805284 0.40559396 4281827000
0.23840672 0.74226481 0.40220183 4281827000
0.23631507 0.73989838 0.40119579 4281827000
0.23509695 0.73710299 0.40009132 4281827000
0.23429349 0.73516786 0.39848205 4281827000
0.2337414 0.73314828 0.39806706 4281827000
0.23059122 0.73016524 0.39736855 4281827000
0.2285845 0.72625637 0.39543095 4281827000
0.2258614 0.72373521 0.39382687 4281827000
0.22515662 0.72168624 0.39289623 4281827000
0.22280616 0.72014189 0.39128861 4281827000
0.22274335 0.71825027 0.39008749 4281827000
0.2202749 0.7155571 0.3888188 4281827000
0.21897598 0.71175861 0.38709199 4281827000
0.21744163 0.70897216 0.38669798 4281827000
0.21539514 0.70624894 0.3857356 4281827000
0.21538952 0.70416802 0.38469177 4281827000
0.21359149 0.70056123 0.38272363 4281827000
0.21244544 0.69770586 0.38157305 4281827000
0.20577487 0.68862879 0.3776795 4281827000
0.20437932 0.68625021 0.37687355 4281827000
0.20309119 0.68386579 0.37432832 4281827000
0.20137317 0.68151778 0.37459353 4281827000
0.19841003 0.67796499 0.37329772 4281827000
0.19798569 0.67673278 0.37090749 4281827000
0.1932923 0.67244315 0.36959913 4281827000
0.18788116 0.66539282 0.36541256 4281827000
0.18605356 0.66262794 0.3645609 4281827000
0.18502818 0.65865874 0.36309817 4281827000
0.18460156 0.6555993 0.36340284 4294967091
0.1841924 0.65315676 0.36255342 4294967091
0.1835586 0.6509636 0.36096212 4294967091
0.18214042 0.64812177 0.3599914 4294967091
0.17969769 0.64455754 0.35907277 4294967091
0.17793681 0.64203769 0.35719028 4294967091
0.1758769 0.64008278 0.35513926 4294967091
0.17401589 0.63793826 0.35470822 4294967091
0.29683042 0.8116349 0.43703008 4293138972
0.29335213 0.80678886 0.43426672 4293138972
0.26118839 0.78172606 0.41746151 4281827000
0.25011432 0.75929362 0.40912539 4281827000
0.24300337 0.74729162 0.40260977 4281827000
0.20482947 0.68625867 0.37414926 4281827000
0.18659772 0.66398716 0.36296284 4281827000
0.17245646 0.63734931 0.35155869 4294967091
0.17055248 0.63498229 0.35118583 4294967091
0.29870012 0.81917197 0.43706521 4293138972
0.25934556 0.76957428 0.41021615 4281827000
0.25260738 0.75562906 0.40443149 4281827000
0.20696208 0.68682986 0.37220713 4281827000
0.18637308 0.66548944 0.36048815 4281827000
0.1812676 0.64768583 0.35494891 4294967091
0.17848153 0.64530057 0.35082859 4294967091
0.17364258 0.63922828 0.35086036 4294967091
0.17201148 0.636814 0.34731677 4294967091
0.30039108 0.81753266 0.43408912 4293138972
0.25164557 0.75900573 0.40282628 4281827000
0.20910957 0.68801647 0.36996558 4281827000
0.17223509 0.63739461 0.34477174 4294967091
0.20894891 0.68757528 0.367167 4281827000
0.17257451 0.63729024 0.34220743 4294967091
0.30693835 0.82456142 0.42846641 4293138972
0.25033626 0.74898446 0.39185098 4281827000
0.25070781 0.74898785 0.38874009 4281827000
0.24691001 0.74309027 0.38785005 4281827000
0.24543735 0.74000114 0.38581955 4281827000
0.24498364 0.73829782 0.38617885 4281827000
0.23538229 0.72415495 0.37812474 4281827000
0.22757369 0.71315813 0.37308398 4281827000
0.22013356 0.70047432 0.36731887 4281827000
0.25369132 0.76216823 0.39217603 4281827000
0.23227301 0.72004116 0.3731201 4281827000
0.2279399 0.71283126 0.36843625 4281827000
0.1710999 0.63280898 0.32565644 4294967091
0.25475162 0.76474708 0.38657185 4281827000
0.24163519 0.72909141 0.37172499 4281827000
0.25464934 0.74891329 0.37064576 4281827000
0.25238997 0.74475002 0.36580583 4294967091
0.24704909 0.72688085 0.35299736 4294967091
0.24716264 0.73187488 0.35040823 4294967091
0.24849153 0.73739886 0.34535465 4294967091
0.24712099 0.73465723 0.33962464 4294967091
0.23976691 0.72987157 0.30840778 4294967091
0.23062871 0.81356335 0.26127127 4294967091
0.29309538 0.8099547 0.44901529 4293138972
0.26179859 0.78045952 0.42893189 4281827000
0.26174653 0.77845532 0.42585239 4281827000
0.26066798 0.77610403 0.42612523 4281827000
0.25801629 0.77434164 0.4258624 4281827000
0.25670427 0.77153987 0.42274755 4281827000
0.25510603 0.76882529 0.42229271 4281827000
0.25319231 0.76574939 0.41938603 4281827000
0.24797787 0.76263756 0.41976374 4281827000
0.24569523 0.75889373 0.41689208 4281827000
0.24494085 0.75748736 0.41598541 4281827000
0.24280618 0.75455308 0.41412503 4281827000
0.24055079 0.75080085 0.41159448 4281827000
0.2383367 0.74954462 0.41125062 4281827000
0.23572811 0.74825865 0.41079831 4281827000
0.23593444 0.74681205 0.4094474 4281827000
0.23249958 0.74287295 0.40759268 4281827000
0.23147598 0.74066466 0.40737498 4281827000
0.22874188 0.73807651 0.40672803 4281827000
0.22777838 0.73475742 0.40421224 4281827000
0.22378772 0.73424375 0.40462413 4281827000
0.22185776 0.73119098 0.40250233 4281827000
0.22220516 0.72816879 0.40056723 4281827000
0.21909535 0.72511762 0.39946899 4281827000
0.21667115 0.72334123 0.3995432 4281827000
0.21632922 0.71667677 0.39582044 4281827000
0.21305777 0.71121132 0.39394036 4281827000
0.21264692 0.70912886 0.39299843 4281827000
0.21099752 0.70455599 0.39146173 4281827000
0.20994471 0.70210451 0.39040831 4281827000
0.20863099 0.70034444 0.38942367 4281827000
0.20799997 0.6986661 0.38975352 4281827000
0.20724374 0.69695646 0.38795322 4281827000
0.20496367 0.69340831 0.38625467 4281827000
0.20289363 0.69054782 0.38537928 4281827000
0.20133185 0.68834794 0.38460478 4281827000
0.1994295 0.68554533 0.38346082 4281827000
0.19834828 0.68384504 0.38206524 4281827000
0.19744766 0.68133366 0.38131827 4281827000
0.19458245 0.67845654 0.38031036 4281827000
0.19368418 0.67507356 0.3779878 4281827000
0.18890539 0.67015105 0.37556738 4281827000
0.18752865 0.66806138 0.37487528 4281827000
0.18564734 0.66396648 0.37217876 4281827000
0.1852366 0.6609484 0.37313953 4281827000
0.18403251 0.65873069 0.37161681 4281827000
0.18303309 0.65551484 0.37042925 4281827000
0.18204483 0.65126467 0.36908299 4281827000
0.18125165 0.64928865 0.36807284 4281827000
0.17906019 0.64615089 0.36752281 4294967091
0.17820182 0.64384866 0.36664212 4294967091
0.17713755 0.64169103 0.36536211 4294967091
0.17585224 0.63876879 0.36417845 4294967091
0.25461745 0.76669163 0.41815615 4281827000
0.24834839 0.75837588 0.41476566 4281827000
0.1823356 0.65142244 0.36668646 4281827000
0.29327616 0.80754083 0.43961668 4293138972
0.25422168 0.76468217 0.41471225 4281827000
0.1887127 0.6681267 0.371429 4281827000
0.18828237 0.66799927 0.36838385 4281827000
0.29561698 0.8116945 0.43895167 4293138972
0.25817743 0.76837814 0.4119525 4281827000
0.25513643 0.76476741 0.41218185 4281827000
0.24579464 0.75114328 0.40584809 4281827000
0.20714615 0.69056308 0.37886575 4281827000
0.19089033 0.67003673 0.36761457 4281827000
0.18885373 0.66777855 0.36563787 4281827000
0.25969082 0.772174 0.41036671 4281827000
0.19660619 0.6740939 0.36743909 4281827000
0.18563446 0.66034281 0.3600049 4294967091
0.29925847 0.81456041 0.43332806 4293138972
0.25599036 0.7648887 0.40572315 4281827000
0.18126699 0.64857852 0.35259268 4294967091
0.30341411 0.82318407 0.4343642 4293138972
0.25793439 0.78237545 0.40340659 4281827000
0.25366729 0.75811952 0.39461035 4281827000
0.25584564 0.76854992 0.38689816 4281827000
0.25430176 0.75804085 0.38662234 4281827000
0.23677519 0.72322452 0.37087768 4281827000
0.22687399 0.71085221 0.36547425 4281827000
0.22123073 0.70074528 0.36067721 4281827000
0.25840694 0.75783795 0.36522174 4294967091
0.2455429 0.73518378 0.32585809 4294967091
0.2902813 0.82022291 0.45154288 4293138972
0.29176295 0.81673145 0.45170146 4293138972
0.29181719 0.81365401 0.45024413 4293138972
0.29264367 0.81129014 0.45054552 4293138972
0.29226431 0.80838233 0.45004919 4293138972
0.29149804 0.80667698 0.44877839 4293138972
0.28843465 0.80339938 0.44677022 4293138972
0.28677738 0.80156302 0.44589981 4293138972
0.28413731 0.79911542 0.44419783 4293138972
0.28208581 0.79761493 0.44373348 4293138972
0.28010219 0.79542744 0.44308588 4293138972
0.27746627 0.7943092 0.44194987 4293138972
0.26206285 0.78675181 0.43130839 4281827000
0.26179722 0.78553069 0.42895597 4281827000
0.26055491 0.78210306 0.42905244 4281827000
0.26252431 0.77967948 0.42746741 4281827000
0.26143476 0.77816212 0.42863113 4281827000
0.25734532 0.77267522 0.42451656 4281827000
0.25604436 0.77012271 0.42334589 4281827000
0.25056636 0.7647925 0.42068505 4281827000
0.24974795 0.76346695 0.41885024 4281827000
0.24535884 0.76034033 0.4183782 4281827000
0.24363214 0.75803143 0.41786969 4281827000
0.24348609 0.75613713 0.41567361 4281827000
0.23989841 0.75384647 0.41465077 4281827000
0.2376862 0.75125992 0.41338003 4281827000
0.23529112 0.74918151 0.41237774 4281827000
0.2332911 0.74570405 0.40941361 4281827000
0.23145428 0.74401939 0.40942055 4281827000
0.23095529 0.74206185 0.4087584 4281827000
0.23114049 0.73892897 0.40642875 4281827000
0.22797717 0.73623896 0.40556189 4281827000
0.22426008 0.73223972 0.40289301 4281827000
0.21994628 0.72955942 0.40176153 4281827000
0.21858598 0.72738391 0.40034193 4281827000
0.21601306 0.71824038 0.39793232 4281827000
0.21378134 0.71573418 0.3967329 4281827000
0.21146347 0.71255493 0.39606529 4281827000
0.2102271 0.70979166 0.39424452 4281827000
0.20972106 0.70736867 0.39415109 4281827000
0.20913173 0.70495015 0.39383847 4281827000
0.20912431 0.70300639 0.39247477 4281827000
0.20660137 0.69966692 0.39158782 4281827000
0.20318352 0.69545758 0.39012694 4281827000
0.20349811 0.69346482 0.3887077 4281827000
0.20128921 0.68966889 0.38686806 4281827000
0.19937369 0.68797147 0.38677457 4281827000
0.1976064 0.68484235 0.38449156 4281827000
0.19714017 0.68266881 0.38328522 4281827000
0.19352186 0.67937374 0.3819572 4281827000
0.19234322 0.67715466 0.38155264 4281827000
0.19035766 0.67448342 0.38009071 4281827000
0.18688059 0.66858435 0.37706172 4281827000
0.1861307 0.66630816 0.37666199 4281827000
0.18609765 0.66502476 0.3749198 4281827000
0.1832761 0.65714329 0.37268689 4281827000
0.18232098 0.65250605 0.37129694 4281827000
0.18040887 0.64993572 0.3703011 4281827000
0.17938417 0.64774328 0.36934057 4281827000
0.1780307 0.64470619 0.36856848 4294967091
0.17624703 0.64069396 0.36672637 4294967091
0.17501292 0.63942933 0.36756766 4294967091
0.1731177 0.63499236 0.36530954 4294967091
0.17118697 0.63330609 0.36273426 4294967091
0.11872514 0.61925203 0.33924574 4281827000
0.11876218 0.6160298 0.33815777 4281827000
0.11842349 0.61339855 0.33740047 4281827000
0.11727156 0.61062539 0.33557653 4281827000
0.11593792 0.60803401 0.33667225 4281827000
0.2929334 0.81231886 0.44613352 4293138972
0.2146921 0.7130124 0.39282829 4281827000
0.17098635 0.63160145 0.36100867 4294967091
0.11670464 0.61193758 0.33328488 4281827000
0.11574089 0.60799026 0.33122692 4281827000
0.23623036 0.7412414 0.40312386 4281827000
0.17051524 0.63363314 0.3556917 4294967091
0.11449555 0.60825789 0.32752538 4281827000
0.29473507 0.8089363 0.43887573 4293138972
0.2595064 0.78709519 0.42165002 4281827000
0.26001924 0.78567713 0.4205178 4281827000
0.26126862 0.78300411 0.42100653 4281827000
0.26074111 0.7798962 0.41893727 4281827000
0.26098293 0.77784485 0.41757968 4281827000
0.25891674 0.77366608 0.41722858 4281827000
0.25141075 0.76050878 0.41290429 4281827000
0.24643078 0.75280499 0.4078137 4281827000
0.24374524 0.75047016 0.40689135 4281827000
0.24338783 0.74893814 0.40477911 4281827000
0.23954828 0.74400264 0.40302137 4281827000
0.16909064 0.63354456 0.35254204 4294967091
0.1130387 0.60545778 0.32367671 4281827000
0.29752076 0.8153311 0.4375515 4293138972
0.25156513 0.75725824 0.40711725 4281827000
0.23390895 0.73137844 0.39485112 4281827000
0.11370346 0.60484469 0.32150623 4281827000
0.11183846 0.60219258 0.31904337 4281827000
0.29687393 0.8109653 0.43395424 4293138972
0.29223603 0.80588692 0.43071258 4293138972
0.25525898 0.76363403 0.40722737 4281827000
0.25951487 0.77267092 0.40670374 4281827000
0.17101754 0.634552 0.34365273 4294967091
0.16866049 0.63310003 0.34062946 4294967091
0.17162439 0.63680017 0.33892533 4294967091
0.16979589 0.63340485 0.33618826 4294967091
0.24309076 0.73606372 0.38497797 4281827000
0.24191977 0.73198491 0.38299283 4281827000
0.20752533 0.68207937 0.35997635 4281827000
0.16946502 0.63305664 0.33311582 4294967091
0.31215677 0.83137065 0.41621253 4293138972
0.2545501 0.75576574 0.37641546 4281827000
0.2385329 0.72291714 0.36480775 4281827000
0.24679412 0.73095161 0.35331461 4294967091
0.24547035 0.73093706 0.33923215 4294967091
0.24494815 0.73237753 0.33444396 4294967091
0.15739867 0.6300894 0.26595968 4294967091
0.23974589 0.73055178 0.30574158 4294967091
0.2895706 0.82451075 0.4581632 4293138972
0.28833669 0.82038021 0.45615035 4293138972
0.28855878 0.81713754 0.45606056 4293138972
0.28910267 0.81253481 0.45572332 4293138972
0.28976271 0.80946642 0.45580113 4293138972
0.2876589 0.80796659 0.45483017 4293138972
0.28610271 0.80410647 0.45389679 4293138972
0.28551453 0.80281693 0.4531714 4293138972
0.28336856 0.80076528 0.45162961 4293138972
0.28038043 0.79825664 0.45097283 4293138972
0.27875054 0.79626435 0.45061246 4293138972
0.29055133 0.82611316 0.4563235 4293138972
0.29029468 0.82402694 0.45572668 4293138972
0.28905091 0.82255054 0.45625255 4293138972
0.28985596 0.81752771 0.45435718 4293138972
0.29087424 0.81329453 0.45441988 4293138972
0.29092354 0.81055635 0.4534685 4293138972
0.28993917 0.807778 0.45291048 4293138972
0.28741091 0.80531269 0.45338893 4293138972
0.28721809 0.80410624 0.45159718 4293138972
0.28464997 0.80029243 0.44968894 4293138972
0.2824823 0.79869545 0.44910467 4293138972
0.27976611 0.7957437 0.44683385 4293138972
0.27714649 0.79463625 0.44572514 4293138972
0.27604535 0.79288876 0.44375449 4293138972
0.27245504 0.79156315 0.4423593 4293138972
0.26994556 0.78946573 0.44131586 4293138972
0.26503852 0.79396558 0.44177142 4293138972
0.24807249 0.79685736 0.45229051 4293138972
0.26230112 0.78218865 0.43776083 4281827000
0.26161996 0.78011757 0.43735924 4281827000
0.25861174 0.77651316 0.43587601 4281827000
0.25634965 0.7743966 0.43195176 4281827000
0.25238127 0.77107519 0.43031219 4281827000
0.25081733 0.76829147 0.42852065 4281827000
0.24925955 0.76677507 0.42809561 4281827000
0.24642062 0.76403838 0.42609364 4281827000
0.24430969 0.76197463 0.42555174 4281827000
0.24135162 0.75988805 0.42387208 4281827000
0.2379992 0.75805038 0.42266014 4281827000
0.23432004 0.75842088 0.42361864 4281827000
0.20592755 0.71756852 0.4020119 4281827000
0.20478319 0.71532577 0.4014264 4281827000
0.20443128 0.70844501 0.39960614 4281827000
0.20242044 0.70543343 0.39885691 4281827000
0.2008719 0.70348054 0.39865613 4281827000
0.2008993 0.70087856 0.3981339 4281827000
0.20045218 0.69874811 0.39685303 4281827000
0.20024209 0.6966731 0.39604202 4281827000
0.19868633 0.6939404 0.3951247 4281827000
0.19579075 0.69119662 0.39447162 4281827000
0.19400953 0.68718451 0.39286867 4281827000
0.19200905 0.68488729 0.39214468 4281827000
0.1914081 0.68212557 0.3906267 4281827000
0.19061707 0.67916507 0.38928789 4281827000
0.18922141 0.67548156 0.38823479 4281827000
0.18718055 0.67298019 0.38682795 4281827000
0.18665244 0.67058736 0.38648617 4281827000
0.18615942 0.66773725 0.3858394 4281827000
0.18428758 0.6640231 0.38431704 4281827000
0.18460615 0.66205311 0.38347825 4281827000
0.18162712 0.65832973 0.38331696 4281827000
0.18165269 0.65612638 0.38253695 4281827000
0.17970949 0.65269417 0.38199952 4281827000
0.17953278 0.65069556 0.38057256 4281827000
0.17804903 0.64754319 0.37913761 4281827000
0.17668539 0.64516205 0.37794012 4281827000
0.17554158 0.64271921 0.37706786 4281827000
0.1744221 0.6403147 0.3754524 4281827000
0.17134531 0.63573033 0.37433007 4281827000
0.16947371 0.63378292 0.3728137 4294967091
0.1196906 0.61985219 0.34950739 4281827000
0.12027054 0.61748177 0.3494792 4281827000
0.28972614 0.82423609 0.45383453 4293138972
0.29071984 0.81864995 0.45293915 4293138972
0.29150724 0.81519055 0.45294189 4293138972
0.29260492 0.81188893 0.45284635 4293138972
0.29098812 0.8088485 0.45259669 4293138972
0.2902284 0.80614555 0.45039189 4293138972
0.28786114 0.80352455 0.44922009 4293138972
0.28342363 0.79852462 0.44683814 4293138972
0.28063294 0.79633182 0.44484517 4293138972
0.27793515 0.79448497 0.44398952 4293138972
0.27344939 0.79237121 0.44097427 4293138972
0.2705349 0.79068029 0.43991628 4293138972
0.26054528 0.78035253 0.43378523 4281827000
0.26082817 0.7793206 0.43518996 4281827000
0.25947636 0.77673674 0.43320724 4281827000
0.25717634 0.77439135 0.42942062 4281827000
0.25423795 0.77143186 0.42799571 4281827000
0.25305787 0.76947647 0.42710716 4281827000
0.25092 0.76658118 0.42599288 4281827000
0.24783766 0.76429945 0.4241432 4281827000
0.24663289 0.76212984 0.42314053 4281827000
0.24381252 0.76002449 0.42217264 4281827000
0.24232438 0.75749105 0.41995925 4281827000
0.23651391 0.75661606 0.42046422 4281827000
0.23390101 0.75482517 0.41965264 4281827000
0.23392884 0.75318706 0.41789261 4281827000
0.23124763 0.74923068 0.41497234 4281827000
0.23019111 0.74757904 0.41385505 4281827000
0.22933754 0.74457043 0.41309726 4281827000
0.22700536 0.74287355 0.41245663 4281827000
0.2221878 0.74132872 0.41071391 4281827000
0.22126374 0.73733759 0.4081673 4281827000
0.21820186 0.73548144 0.40687752 4281827000
0.21634077 0.73320037 0.40552002 4281827000
0.214664 0.73065335 0.40478528 4281827000
0.21498153 0.72797978 0.40373927 4281827000
0.21296664 0.72582966 0.40437567 4281827000
0.21064854 0.72299576 0.40370291 4281827000
0.21188439 0.71873498 0.40073693 4281827000
0.20972027 0.71626604 0.39991418 4281827000
0.20729272 0.71454579 0.40013042 4281827000
0.20566984 0.71221519 0.39989835 4281827000
0.20640899 0.70920372 0.39846304 4281827000
0.20498544 0.7058484 0.39741212 4281827000
0.20358777 0.70301002 0.39694372 4281827000
0.20342577 0.70053631 0.39577141 4281827000
0.20316887 0.69773108 0.3946543 4281827000
0.20179094 0.69539422 0.39395651 4281827000
0.19837724 0.69126934 0.39292255 4281827000
0.19498943 0.68926764 0.39231449 4281827000
0.19615862 0.68586767 0.38967118 4281827000
0.19371796 0.68341273 0.38872874 4281827000
0.19104195 0.68129456 0.38819629 4281827000
0.19155915 0.67918718 0.38703546 4281827000
0.19050927 0.67683774 0.38672939 4281827000
0.19019039 0.67396504 0.38543224 4281827000
0.1881533 0.67081052 0.3845073 4281827000
0.18551138 0.66591829 0.38339928 4281827000
0.18501881 0.6644451 0.38131696 4281827000
0.18270755 0.65985918 0.38202479 4281827000
0.18295473 0.65906012 0.37984297 4281827000
0.18146895 0.65636617 0.3794764 4281827000
0.18128169 0.65384382 0.37777603 4281827000
0.18024603 0.65137541 0.37775919 4281827000
0.17850231 0.64767164 0.37631643 4281827000
0.17777492 0.64573979 0.37488046 4281827000
0.17630509 0.64303446 0.37455121 4281827000
0.1748369 0.64016426 0.37266698 4281827000
0.17355005 0.63758451 0.3721298 4294967091
0.17104125 0.63402313 0.37114841 4294967091
0.11948667 0.61808658 0.34559405 4281827000
0.11905558 0.61495596 0.34476885 4281827000
0.28244913 0.79656887 0.44253165 4293138972
0.25125265 0.80363494 0.45145506 4293138972
0.25027847 0.79073775 0.44437748 4281827000
0.26150844 0.7812416 0.43091914 4281827000
0.2618176 0.77977437 0.43249825 4281827000
0.25952175 0.77744627 0.42763364 4281827000
0.2597951 0.77689832 0.42991641 4281827000
0.25302154 0.76803482 0.42380211 4281827000
0.25097606 0.76527393 0.42272145 4281827000
0.24860282 0.76360899 0.42167959 4281827000
0.24575032 0.76145929 0.42069912 4281827000
0.24329513 0.75934178 0.41954431 4281827000
0.24199201 0.75631273 0.41763431 4281827000
0.2406411 0.75472814 0.41635412 4281827000
0.23821898 0.75261676 0.41485864 4281827000
0.23484185 0.74994504 0.41423842 4281827000
0.23036443 0.74583745 0.41199619 4281827000
0.23056054 0.74348211 0.41129619 4281827000
0.22670501 0.74126333 0.41079971 4281827000
0.22476277 0.73934507 0.40939739 4281827000
0.22239201 0.7361505 0.40610003 4281827000
0.2211448 0.73277855 0.40471771 4281827000
0.21794721 0.73008204 0.40343308 4281827000
0.21682329 0.72672576 0.40170839 4281827000
0.21516262 0.72532511 0.40232554 4281827000
0.21525212 0.72206229 0.40074667 4281827000
0.21306634 0.72110409 0.401494 4281827000
0.21366598 0.71687621 0.39899486 4281827000
0.20921262 0.71367073 0.39854673 4281827000
0.20858862 0.71115226 0.39790979 4281827000
0.20778865 0.70776886 0.39631975 4281827000
0.2069805 0.70532358 0.39576557 4281827000
0.20621875 0.70262831 0.39538124 4281827000
0.20693029 0.70185071 0.39321148 4281827000
0.20476288 0.69949788 0.3932634 4281827000
0.200059 0.69333804 0.39249432 4281827000
0.19978018 0.69122595 0.39096573 4281827000
0.19699273 0.68861836 0.39021176 4281827000
0.19754943 0.68742913 0.38839138 4281827000
0.19584048 0.68443215 0.38750485 4281827000
0.19456998 0.68199068 0.38661498 4281827000
0.19315761 0.67970937 0.38528806 4281827000
0.19124743 0.67631066 0.38418067 4281827000
0.18841091 0.67309213 0.38195437 4281827000
0.18603845 0.6680972 0.38311771 4281827000
0.18579273 0.66716349 0.38119793 4281827000
0.1848388 0.66224968 0.38046458 4281827000
0.18398479 0.66163909 0.37776738 4281827000
0.18283936 0.65888888 0.37722996 4281827000
0.18253551 0.65693736 0.37513125 4281827000
0.18191254 0.65443838 0.37525433 4281827000
0.18068357 0.65089321 0.37299335 4281827000
0.17957024 0.64897311 0.37442863 4281827000
0.1771739 0.64495856 0.37248108 4281827000
0.17578831 0.64226145 0.37164569 4281827000
0.17535873 0.64040369 0.36985743 4294967091
0.17415076 0.63810891 0.36988044 4294967091
0.17226121 0.63481468 0.36749625 4294967091
0.11862227 0.61855763 0.34236869 4281827000
0.11918975 0.6125862 0.34475634 4281827000
0.11782639 0.61101973 0.34144333 4281827000
0.11623491 0.60886395 0.33970636 4281827000
0.21699373 0.72091275 0.39860946 4281827000
0.19759889 0.68597627 0.38696179 4281827000
0.19613898 0.68349808 0.38520479 4281827000
0.19484739 0.68061131 0.38241118 4281827000
0.19242647 0.67831069 0.38349453 4281827000
0.18911263 0.67561418 0.38148731 4281827000
0.18948528 0.67250794 0.37980083 4281827000
0.18752639 0.67041296 0.37862495 4281827000
0.18635926 0.66646713 0.37918702 4281827000
0.1856029 0.66395521 0.37755212 4281827000
0.18147488 0.65311509 0.37321386 4281827000
0.1799386 0.64836305 0.37220219 4281827000
0.17850062 0.64623058 0.3708393 4281827000
0.17690493 0.64398175 0.37014055 4281827000
0.17653811 0.64210057 0.36885175 4294967091
0.17378525 0.63710415 0.36759502 4294967091
0.1748291 0.63794935 0.36616376 4294967091
0.17163844 0.63300294 0.3657558 4294967091
0.11872654 0.61419696 0.3413963 4281827000
0.11779819 0.61206472 0.33920857 4281827000
0.11672706 0.61009866 0.33775976 4281827000
0.11389846 0.60570532 0.33575988 4281827000
0.29225615 0.80606937 0.44415206 4293138972
0.29649857 0.81757104 0.44215 4293138972
0.23326352 0.73743933 0.40289214 4281827000
0.20090941 0.68518496 0.3810837 4281827000
0.18185708 0.64927816 0.36545295 4294967091
0.11399455 0.60570925 0.32787973 4281827000
0.25286674 0.76338255 0.41292217 4281827000
0.2391025 0.74588472 0.4049722 4281827000
0.23221613 0.73424584 0.40070695 4281827000
0.22031528 0.71755689 0.39101627 4281827000
0.20212512 0.68393296 0.37660235 4281827000
0.11314574 0.60392559 0.32592443 4281827000
0.11256402 0.60287815 0.32372776 4281827000
0.11106259 0.60124469 0.32114485 4281827000
0.11093348 0.60028684 0.31894228 4281827000
0.29957488 0.82516861 0.43818301 4293138972
0.25198722 0.7521081 0.39469078 4281827000
0.20475364 0.68173367 0.36334363 4281827000
0.30819905 0.8259756 0.42901173 4293138972
0.24011219 0.72959441 0.38210836 4281827000
0.2490003 0.73590457 0.35775906 4294967091
0.2269884 0.80492204 0.28251722 4294967091
0.28879914 0.82250684 0.45856452 4293138972
0.28777602 0.82042325 0.45859683 4293138972
0.286385 0.81637686 0.45756927 4293138972
0.28692478 0.81264269 0.45725068 4293138972
0.28698137 0.81026298 0.45726269 4293138972
0.28347668 0.80170465 0.45400181 4293138972
0.28103232 0.79913437 0.4533591 4293138972
0.27863783 0.79706436 0.45268384 4293138972
0.27678007 0.79518932 0.45158297 4293138972
0.28661487 0.80272913 0.45028901 4293138972
0.27560574 0.79295141 0.44575006 4293138972
0.27134687 0.79031801 0.44355473 4293138972
0.26873928 0.78756392 0.44252768 4293138972
0.26546353 0.78487718 0.44123611 4293138972
0.26204708 0.7818743 0.44046077 4281827000
0.26186624 0.7808392 0.43908453 4281827000
0.26125214 0.77910221 0.43829641 4281827000
0.25957376 0.77735859 0.43769875 4281827000
0.25494862 0.77400535 0.43428391 4281827000
0.25191116 0.7711367 0.43288359 4281827000
0.24964488 0.76911777 0.43158537 4281827000
0.24887243 0.7678836 0.43021181 4281827000
0.24733794 0.76624781 0.42991561 4281827000
0.24418294 0.76551634 0.42903417 4281827000
0.2411235 0.76270121 0.42735958 4281827000
0.23902975 0.7607547 0.42585367 4281827000
0.20106949 0.70831323 0.40088269 4281827000
0.19977964 0.70571136 0.4005183 4281827000
0.19885993 0.70248568 0.39997581 4281827000
0.197593 0.69964635 0.3991794 4281827000
0.19731759 0.6975432 0.39797071 4281827000
0.19585286 0.69306391 0.39646685 4281827000
0.19438189 0.68975312 0.39527979 4281827000
0.19252074 0.68655396 0.39436457 4281827000
0.19026425 0.68316156 0.39296868 4281827000
0.18986808 0.68080777 0.39110458 4281827000
0.18825367 0.67842805 0.39134231 4281827000
0.18702503 0.6749388 0.38998234 4281827000
0.18723102 0.67248064 0.38947448 4281827000
0.18620536 0.66963875 0.38866645 4281827000
0.18470298 0.66576725 0.38636255 4281827000
0.1834529 0.66278911 0.38618055 4281827000
0.18260391 0.66038752 0.38513714 4281827000
0.18088683 0.6568647 0.38472474 4281827000
0.18018048 0.65437955 0.38431621 4281827000
0.17931715 0.65186143 0.38392407 4281827000
0.17783576 0.64923739 0.38350588 4281827000
0.17711172 0.646891 0.38108799 4281827000
0.17532168 0.64382398 0.3796083 4281827000
0.17370114 0.64125466 0.37877449 4281827000
0.17274125 0.63948691 0.37735581 4281827000
0.17093833 0.63682324 0.37687641 4281827000
0.16942284 0.6346795 0.37577108 4281827000
0.16713795 0.63102847 0.37417766 4294967091
0.12099344 0.61999118 0.35329431 4281827000
0.12006094 0.61672652 0.35234493 4281827000
0.11954057 0.61410266 0.35107669 4281827000
0.11836718 0.61091936 0.35089123 4281827000
0.11907462 0.61434454 0.34757519 4281827000
0.28721234 0.80287707 0.44763756 4293138972
0.28986067 0.82591981 0.44961059 4293138972
0.29164144 0.81751621 0.44806129 4293138972
0.29267687 0.81400341 0.44760159 4293138972
0.29280159 0.80737644 0.44515094 4293138972
0.29020038 0.80405676 0.44311678 4293138972
0.28572315 0.80012053 0.44021994 4293138972
0.26127782 0.7880379 0.42760518 4281827000
0.29403827 0.81474257 0.44424075 4293138972
0.28636172 0.79988402 0.43819642 4293138972
0.2564106 0.76807207 0.41765749 4281827000
0.24203439 0.75094295 0.40948367 4281827000
0.11468324 0.60549861 0.33070531 4281827000
0.29860193 0.81974077 0.44211149 4293138972
0.25792083 0.76930565 0.41662294 4281827000
0.24440575 0.75179946 0.40872172 4281827000
0.22943126 0.73054659 0.39945689 4281827000
0.21040788 0.69854844 0.38495064 4281827000
0.29862419 0.82423341 0.44004294 4293138972
0.17233939 0.63586849 0.35464472 4294967091
0.25140697 0.76087922 0.40808049 4281827000
0.24848577 0.75101155 0.40339327 4281827000
0.25862345 0.78611797 0.41181818 4281827000
0.24994445 0.75206608 0.40202528 4281827000
0.2339399 0.72826982 0.39054209 4281827000
0.20165093 0.67463666 0.36225897 4281827000
0.23320165 0.72233325 0.37677202 4281827000
0.23113097 0.72014821 0.37553865 4281827000
0.2292003 0.71548826 0.37331575 4281827000
0.22572069 0.70993119 0.37157372 4281827000
0.24628177 0.73875391 0.37860951 4281827000
0.25021213 0.73997855 0.36016777 4294967091
0.28180891 0.81615293 0.46283996 4293138972
0.28125924 0.81282616 0.462538 4293138972
0.28140095 0.81071323 0.46178558 4293138972
0.27963376 0.80644315 0.46036708 4293138972
0.27905163 0.80409867 0.45992294 4293138972
0.27828023 0.80198163 0.459757 4293138972
0.27546012 0.79787844 0.45720023 4293138972
0.28482205 0.82051116 0.46177816 4293138972
0.28436926 0.81752759 0.46139055 4293138972
0.28294289 0.81402147 0.46091369 4293138972
0.28288221 0.81132203 0.45957944 4293138972
0.2816985 0.8069213 0.45879248 4293138972
0.28109354 0.80468166 0.45883691 4293138972
0.28132662 0.80129349 0.45700201 4293138972
0.27700454 0.79769111 0.4552401 4293138972
0.27552164 0.79627478 0.45576972 4293138972
0.27263772 0.79321963 0.45357761 4293138972
0.27077329 0.79135782 0.45167187 4293138972
0.26839808 0.78767163 0.449857 4293138972
0.26666045 0.78588474 0.44859171 4293138972
0.26438665 0.78357297 0.44709152 4293138972
0.26035598 0.77997583 0.44608346 4293138972
0.25694546 0.77798754 0.44339466 4281827000
0.25420186 0.77683312 0.44393471 4281827000
0.25339019 0.77523607 0.44121659 4281827000
0.24872158 0.77258486 0.43966639 4281827000
0.24698025 0.77071428 0.43829119 4281827000
0.24495694 0.76926166 0.43793383 4281827000
0.24154697 0.76795119 0.43669802 4281827000
0.23925032 0.76726204 0.43700922 4281827000
0.23525494 0.76365048 0.43286863 4281827000
0.19094779 0.70470643 0.40500528 4281827000
0.19107887 0.70183396 0.40469709 4281827000
0.19032769 0.69914627 0.40394655 4281827000
0.18784755 0.6956389 0.40382889 4281827000
0.1875606 0.69321805 0.40291688 4281827000
0.18671459 0.68974817 0.40190595 4281827000
0.18547808 0.68623817 0.40174168 4281827000
0.1859671 0.68323857 0.39986256 4281827000
0.18539204 0.68028116 0.39890885 4281827000
0.18459383 0.67749852 0.39828807 4281827000
0.18349466 0.67443222 0.39713562 4281827000
0.18453893 0.67197502 0.39673463 4281827000
0.18271635 0.66784227 0.39604318 4281827000
0.18242678 0.66524416 0.39533088 4281827000
0.18131509 0.6600039 0.39428452 4281827000
0.17904095 0.65597886 0.39247522 4281827000
0.17853081 0.65384495 0.39177355 4281827000
0.17622283 0.65070474 0.39126301 4281827000
0.17574817 0.64754057 0.38971469 4281827000
0.17365423 0.64553696 0.3883521 4281827000
0.1718736 0.64309263 0.38729468 4281827000
0.16970916 0.64038849 0.38657731 4281827000
0.16835864 0.63787234 0.38524866 4281827000
0.16498621 0.63426769 0.38390309 4281827000
0.16355266 0.63190132 0.38247129 4281827000
0.15278199 0.62524211 0.37997103 4281827000
0.1240688 0.62325615 0.36483502 4281827000
0.12264858 0.61909467 0.36358729 4281827000
0.12030429 0.61637419 0.36355162 4281827000
0.28816214 0.82406288 0.46205813 4293138972
0.28722644 0.82248062 0.46059549 4293138972
0.28490928 0.81884021 0.45993364 4293138972
0.28513396 0.81576103 0.45951208 4293138972
0.28320873 0.81301385 0.45845357 4293138972
0.28409758 0.80910003 0.45835495 4293138972
0.28342208 0.80622351 0.45781472 4293138972
0.28193352 0.80342329 0.45742202 4293138972
0.28088975 0.80061847 0.45470646 4293138972
0.27881446 0.79846519 0.45391315 4293138972
0.2766268 0.79639828 0.45351598 4293138972
0.27122149 0.79035783 0.44829407 4293138972
0.2694678 0.78817469 0.44766816 4293138972
0.2676048 0.78650767 0.44665664 4293138972
0.26508564 0.78423434 0.44552606 4293138972
0.26257873 0.78173733 0.44388649 4293138972
0.26160732 0.77931631 0.44269708 4281827000
0.25943398 0.77852505 0.44239315 4281827000
0.25516772 0.77671552 0.4423528 4281827000
0.25193483 0.77366483 0.43784866 4281827000
0.25056836 0.77231735 0.43626326 4281827000
0.24799718 0.77144539 0.4371973 4281827000
0.2460013 0.76805741 0.43391687 4281827000
0.24329053 0.7671895 0.43360046 4281827000
0.23892438 0.76483852 0.43093178 4281827000
0.23657756 0.76318747 0.43057686 4281827000
0.23485176 0.76100707 0.42872152 4281827000
0.20632337 0.72608632 0.41064408 4281827000
0.19477494 0.71740502 0.40687567 4281827000
0.19375892 0.71153969 0.4050945 4281827000
0.19493441 0.70837301 0.4041793 4281827000
0.19499721 0.70538723 0.40392563 4281827000
0.19430751 0.70185685 0.40307829 4281827000
0.19243923 0.69928938 0.40249959 4281827000
0.19125505 0.69549453 0.40205094 4281827000
0.18964349 0.69222891 0.400902 4281827000
0.18877798 0.68926579 0.40018463 4281827000
0.18754397 0.68600124 0.39965427 4281827000
0.18688607 0.68257326 0.39750284 4281827000
0.18611017 0.67961758 0.3966805 4281827000
0.18524371 0.6763199 0.39614618 4281827000
0.18404651 0.67361492 0.39460757 4281827000
0.18414161 0.67112148 0.39423698 4281827000
0.18341075 0.66782296 0.39384067 4281827000
0.18235289 0.66429555 0.39282444 4281827000
0.18219762 0.66227174 0.39259762 4281827000
0.18138921 0.65870559 0.39018953 4281827000
0.18013869 0.65597337 0.39007619 4281827000
0.17903212 0.65368533 0.38936138 4281827000
0.1771272 0.65071988 0.38856748 4281827000
0.17555127 0.64821899 0.38733438 4281827000
0.17366868 0.64540559 0.38599235 4281827000
0.1726429 0.64335448 0.38499126 4281827000
0.1710539 0.6399613 0.38370609 4281827000
0.16902769 0.63789105 0.38310093 4281827000
0.16539693 0.6339916 0.38201818 4281827000
0.16656603 0.63326687 0.38056538 4281827000
0.1233985 0.62313128 0.36210805 4281827000
0.12243726 0.62074161 0.36107147 4281827000
0.28570849 0.80497962 0.45572701 4293138972
0.27283293 0.79169798 0.44717661 4293138972
0.27110076 0.78959143 0.4464989 4293138972
0.2687287 0.78714812 0.44532862 4293138972
0.26406741 0.78295189 0.44256473 4293138972
0.26023859 0.77833599 0.43993384 4281827000
0.25738093 0.7766065 0.43866459 4281827000
0.25227156 0.77306503 0.43488738 4281827000
0.24982135 0.77134091 0.43461615 4281827000
0.24855578 0.77040774 0.43549582 4281827000
0.24451037 0.76662767 0.43139726 4281827000
0.24177168 0.76491123 0.42957997 4281827000
0.23863345 0.76371312 0.42890987 4281827000
0.23638314 0.762191 0.42750454 4281827000
0.23611139 0.76004446 0.42652315 4281827000
0.22999446 0.75573379 0.42487344 4281827000
0.2120695 0.73406792 0.41228053 4281827000
0.21194512 0.72869039 0.41156247 4281827000
0.20527104 0.72571301 0.40818125 4281827000
0.20176379 0.72384065 0.40636554 4281827000
0.19879948 0.71933973 0.40448016 4281827000
0.19774519 0.71640807 0.40462825 4281827000
0.19716622 0.71298379 0.40411285 4281827000
0.19645517 0.71014082 0.4036369 4281827000
0.19843659 0.70729619 0.40253583 4281827000
0.19724795 0.70457339 0.40206131 4281827000
0.19623235 0.70169252 0.40110227 4281827000
0.19347623 0.69673884 0.40111551 4281827000
0.19512324 0.6964649 0.39910641 4281827000
0.19214511 0.69329453 0.39961812 4281827000
0.18970531 0.68753242 0.39840999 4281827000
0.18854834 0.68522441 0.39719141 4281827000
0.18839994 0.6830985 0.3953234 4281827000
0.18743935 0.68058676 0.39522281 4281827000
0.18620488 0.67754132 0.39469171 4281827000
0.18525292 0.67483026 0.39307946 4281827000
0.18438558 0.67192918 0.39241409 4281827000
0.18503292 0.66793293 0.39081472 4281827000
0.18318944 0.6645295 0.39058489 4281827000
0.18177027 0.65958941 0.38857725 4281827000
0.18087137 0.65714794 0.38823199 4281827000
0.18037795 0.65370446 0.38719359 4281827000
0.17817347 0.65095669 0.38582498 4281827000
0.17481062 0.64544404 0.38427138 4281827000
0.17215647 0.63974041 0.38059837 4281827000
0.16835637 0.63625121 0.38134423 4281827000
0.16784646 0.6349954 0.37952489 4281827000
0.16477323 0.63023913 0.37833801 4281827000
0.12318639 0.6225704 0.35799477 4281827000
0.12220616 0.61858523 0.36031395 4281827000
0.12172918 0.61731774 0.35838369 4281827000
0.11994179 0.61536801 0.35665467 4281827000
0.28125432 0.79731214 0.44745556 4293138972
0.23433195 0.75652379 0.42184186 4281827000
0.23159598 0.75576913 0.42177278 4281827000
0.22264059 0.74372262 0.4156087 4281827000
0.21791136 0.74207568 0.41389596 4281827000
0.21474329 0.73747212 0.41053495 4281827000
0.21302344 0.73133475 0.40993348 4281827000
0.21092252 0.72830266 0.40831447 4281827000
0.2082905 0.72588921 0.4069531 4281827000
0.20660087 0.72372013 0.40607804 4281827000
0.20477372 0.72179359 0.40489355 4281827000
0.20278557 0.71771365 0.40286365 4281827000
0.20231614 0.71464902 0.40240854 4281827000
0.20276283 0.7118817 0.40145123 4281827000
0.19973062 0.71040934 0.40247205 4281827000
0.1942797 0.69417155 0.39850396 4281827000
0.19325043 0.69128251 0.39714438 4281827000
0.1922732 0.68862414 0.39665115 4281827000
0.19104947 0.68520755 0.39528728 4281827000
0.1881668 0.68137461 0.39365208 4281827000
0.18719229 0.67640305 0.39225134 4281827000
0.18617186 0.67353159 0.39142942 4281827000
0.18517335 0.67073768 0.39047816 4281827000
0.18473449 0.66651535 0.3886832 4281827000
0.18341187 0.66423637 0.38784575 4281827000
0.18251169 0.66105676 0.3875072 4281827000
0.18183525 0.65853208 0.38658699 4281827000
0.18050136 0.65584338 0.38659337 4281827000
0.17651463 0.64683628 0.38329852 4281827000
0.17557639 0.64487165 0.38186228 4281827000
0.17381757 0.64238304 0.38094628 4281827000
0.17135936 0.63809747 0.37871248 4281827000
0.16864063 0.63429767 0.37760442 4281827000
0.12138715 0.62052172 0.35698384 4281827000
0.12072919 0.61754602 0.35502324 4281827000
0.11954422 0.61443883 0.35437709 4281827000
0.29209802 0.81009197 0.45173693 4293138972
0.23029897 0.75035286 0.41694507 4281827000
0.22770987 0.74760455 0.41742831 4281827000
0.22732608 0.74470234 0.41472352 4281827000
0.21652128 0.73923016 0.41059566 4281827000
0.21619892 0.73709375 0.4085429 4281827000
0.21437132 0.73522657 0.40776351 4281827000
0.21251388 0.73159391 0.40708625 4281827000
0.21206407 0.72926152 0.40729094 4281827000
0.20839182 0.72111982 0.40377873 4281827000
0.29126689 0.81311667 0.45144576 4293138972
0.28988358 0.80482799 0.44738331 4293138972
0.25840333 0.77581829 0.43102667 4281827000
0.17997457 0.65276283 0.37953249 4281827000
0.17291407 0.63790506 0.37473589 4281827000
0.11775723 0.61048406 0.34585845 4281827000
0.29193589 0.80627739 0.44662294 4293138972
0.26702252 0.8054862 0.4380565 4293138972
0.26168847 0.77908438 0.43027282 4281827000
